ply
format ascii 1.0
element vertex 1178
property float x
property float y
property float z
property uchar diffuse_red
property uchar diffuse_green
property uchar diffuse_blue
end_header
-0.546248 -0.00930164 -0.0632565 112 55 17
-0.545678 -0.00699664 -0.0624896 109 54 23
-0.54511 -0.00469983 -0.0617258 114 54 23
-0.545394 -0.00246397 -0.0616585 120 54 32
-0.543983 -0.000130504 -0.0602077 140 50 38
-0.543423 0.00214208 -0.0594534 180 54 41
-0.542866 0.00440667 -0.058702 174 72 50
-0.541477 0.00669689 -0.0572753 165 76 52
-0.540927 0.00894102 -0.0565329 177 88 57
-0.539555 0.0112014 -0.0551238 181 91 64
-0.539014 0.0134254 -0.0543903 186 63 48
-0.538474 0.0156418 -0.0536598 178 49 49
-0.550233 -0.0209987 -0.0710024 115 58 30
-0.547898 -0.0184608 -0.0687608 112 59 33
-0.547318 -0.0161177 -0.0679749 111 57 31
-0.547604 -0.0138605 -0.0679074 108 62 28
-0.547891 -0.0116018 -0.0678399 111 58 21
-0.54645 -0.00920608 -0.0663456 122 54 11
-0.545021 -0.00682894 -0.0648638 136 57 30
-0.544454 -0.00452741 -0.064094 189 50 47
-0.543889 -0.00223409 -0.0633274 218 60 45
-0.543326 5.11541e-05 -0.062564 215 62 47
-0.541926 0.00237101 -0.061113 206 65 49
-0.541371 0.00463541 -0.0603587 188 50 45
-0.540819 0.00689185 -0.0596076 184 40 32
-0.539441 0.00916879 -0.0581805 186 59 51
-0.538897 0.0114049 -0.0574383 199 61 55
-0.537535 0.0136523 -0.0560288 210 60 50
-0.536998 0.0158684 -0.0552955 212 64 56
-0.537277 0.018067 -0.0552297 200 58 52
-0.549288 -0.0231362 -0.0735049 117 57 28
-0.548698 -0.0207658 -0.0727028 114 56 27
-0.548986 -0.018492 -0.0726354 112 54 27
-0.549275 -0.0162168 -0.0725679 109 57 27
-0.549563 -0.0139402 -0.0725004 108 57 32
-0.548975 -0.0115886 -0.071702 121 54 34
-0.546654 -0.00910964 -0.069461 183 47 27
-0.545218 -0.00672267 -0.0679604 213 67 47
-0.544647 -0.0044115 -0.0671815 224 63 55
-0.543229 -0.00205624 -0.0656997 240 62 43
-0.542666 0.000233603 -0.0649302 238 58 49
-0.541265 0.00255776 -0.063467 234 58 49
-0.54071 0.0048267 -0.0627068 227 55 43
-0.539327 0.00712035 -0.0612617 222 59 50
-0.538779 0.00936874 -0.0605106 219 60 50
-0.538235 0.0116093 -0.0597627 227 55 43
-0.536057 0.0138792 -0.0576675 225 59 48
-0.535522 0.0160951 -0.0569314 215 56 50
-0.535801 0.018294 -0.0568662 215 53 53
-0.536894 0.0204892 -0.0574715 199 61 49
-0.551304 -0.0302943 -0.0791507 116 64 37
-0.548932 -0.0276694 -0.0768291 113 61 40
-0.54922 -0.0253852 -0.0767619 112 61 48
-0.548628 -0.0230011 -0.0759501 114 58 31
-0.548038 -0.0206257 -0.0751417 110 58 29
-0.547451 -0.0182589 -0.0743366 109 57 32
-0.548615 -0.0160665 -0.0750075 108 57 37
-0.548904 -0.0137847 -0.0749404 121 51 32
-0.548315 -0.0114282 -0.0741357 183 48 48
-0.545993 -0.00894481 -0.071875 217 59 55
-0.544556 -0.00655327 -0.0703617 217 51 49
-0.543985 -0.00423735 -0.0695765 231 56 51
-0.543416 -0.0019297 -0.0687947 241 63 49
-0.542003 0.000416884 -0.0673067 239 60 47
-0.540602 0.00274535 -0.065831 237 55 50
-0.540047 0.00501882 -0.0650649 237 56 50
-0.538662 0.0073167 -0.0636075 230 54 48
-0.537289 0.00959705 -0.0621621 225 56 46
-0.536747 0.0118374 -0.0614113 219 56 51
-0.534578 0.0141062 -0.0593065 216 51 45
-0.534046 0.0163218 -0.0585676 214 55 51
-0.534324 0.0185209 -0.0585029 219 56 52
-0.535414 0.0207169 -0.0591121 212 53 48
-0.54798 -0.0298319 -0.0793579 110 62 40
-0.547388 -0.0274358 -0.0785394 110 62 43
-0.547677 -0.0251513 -0.0784727 111 60 40
-0.547087 -0.0227674 -0.0776578 112 57 28
-0.5465 -0.0203923 -0.0768462 112 57 18
-0.546788 -0.0181132 -0.0767797 111 52 21
-0.546203 -0.0157501 -0.0759717 120 53 28
-0.546491 -0.0134729 -0.0759053 184 46 33
-0.546779 -0.0111943 -0.0758388 226 61 49
-0.544465 -0.00871217 -0.0735679 225 59 53
-0.543035 -0.00632136 -0.0720479 218 53 48
-0.54332 -0.0040624 -0.071982 236 57 45
-0.5419 -0.00169827 -0.0704749 242 56 42
-0.540493 0.000647587 -0.0689804 236 51 47
-0.539097 0.00297534 -0.0674983 228 50 49
-0.538545 0.0052486 -0.0667292 224 44 47
-0.537166 0.00754574 -0.0652655 216 50 45
-0.535799 0.00982543 -0.0638138 215 51 50
-0.534444 0.0120878 -0.0623739 207 49 55
-0.532292 0.0143507 -0.0602682 203 47 49
-0.53257 0.0165486 -0.060204 206 56 51
-0.532848 0.0187479 -0.0601399 206 46 44
-0.534746 0.0209405 -0.0614329 195 48 37
-0.538308 0.0231533 -0.0641161 170 47 49
-0.547909 -0.032121 -0.082659 113 64 36
-0.546434 -0.0295979 -0.0810716 111 61 37
-0.544971 -0.0270949 -0.0794977 113 59 36
-0.545258 -0.0248151 -0.0794317 115 60 35
-0.545546 -0.0225337 -0.0793657 117 59 23
-0.544962 -0.0201588 -0.078551 116 58 15
-0.544381 -0.0177926 -0.0777398 116 58 14
-0.544667 -0.0155167 -0.077674 140 55 32
-0.544954 -0.0132393 -0.0776081 217 63 46
-0.543512 -0.0108167 -0.0760619 237 62 48
-0.542081 -0.00841316 -0.0745288 235 60 52
-0.541513 -0.00608942 -0.0737343 225 54 50
-0.540947 -0.00377395 -0.0729432 225 55 45
-0.540384 -0.00146678 -0.0721554 224 52 47
-0.538983 0.000878324 -0.0706544 218 46 52
-0.537593 0.00320536 -0.0691658 213 46 48
-0.536215 0.00551456 -0.0676896 212 40 53
-0.534029 0.0078373 -0.0655299 206 43 46
-0.53268 0.0101067 -0.0640836 209 48 49
-0.530539 0.0123805 -0.0619679 208 48 51
-0.530016 0.0145942 -0.0612261 204 51 47
-0.530292 0.0167879 -0.0611626 196 47 49
-0.531371 0.0189749 -0.0617771 189 45 43
-0.533262 0.0211687 -0.0630774 174 41 42
-0.536811 0.0233836 -0.0657746 167 49 50
-0.545476 -0.0317684 -0.0836138 118 64 29
-0.544014 -0.0292519 -0.0820262 115 63 32
-0.543431 -0.0268617 -0.0812048 115 62 29
-0.543717 -0.0245816 -0.0811394 112 60 33
-0.543137 -0.0222035 -0.0803215 111 57 29
-0.543423 -0.0199254 -0.0802561 110 61 33
-0.542845 -0.0175594 -0.0794418 122 57 33
-0.542269 -0.015202 -0.0786309 189 51 50
-0.541695 -0.0128532 -0.0778234 230 67 58
-0.540272 -0.0104422 -0.0762834 237 61 53
-0.540557 -0.00818094 -0.0762185 230 59 51
-0.539144 -0.00579689 -0.0746916 222 55 49
-0.538584 -0.00348668 -0.0739007 220 48 46
-0.538027 -0.00118469 -0.073113 215 43 45
-0.535807 0.00119994 -0.0708978 209 43 46
-0.534435 0.00351625 -0.0694149 202 43 46
-0.53226 0.00585015 -0.0672452 205 39 51
-0.52931 0.00818697 -0.0644145 203 42 40
-0.527198 0.0104621 -0.0623059 194 44 41
-0.527473 0.0126488 -0.0622432 190 42 41
-0.527748 0.0148369 -0.0621804 192 42 40
-0.528024 0.0170263 -0.0621175 193 43 39
-0.529095 0.0192096 -0.0627332 178 43 32
-0.530973 0.0214001 -0.0640353 165 39 35
-0.534495 0.0236126 -0.0667354 164 36 39
-0.543053 -0.0314172 -0.0845647 117 60 31
-0.541604 -0.0289074 -0.082977 115 59 36
-0.541026 -0.0265228 -0.0821559 113 64 34
-0.541312 -0.0242472 -0.0820911 114 61 30
-0.541598 -0.0219703 -0.0820263 119 58 19
-0.541023 -0.0196011 -0.0812088 114 61 33
-0.54045 -0.0172407 -0.0803947 132 55 37
-0.53988 -0.0148887 -0.0795841 208 60 51
-0.538464 -0.0124704 -0.0780372 231 58 53
-0.538748 -0.0102102 -0.0779729 228 53 48
-0.537342 -0.00781886 -0.0764392 222 49 53
-0.536786 -0.00550558 -0.0756452 212 46 49
-0.536231 -0.00320054 -0.0748544 209 39 38
-0.534849 -0.000854017 -0.0733464 206 40 31
-0.531025 0.00160726 -0.0697253 204 42 24
-0.52888 0.00394215 -0.0675631 199 40 33
-0.52676 0.00624991 -0.0654273 192 36 35
-0.524667 0.00853104 -0.0633174 196 32 29
-0.524157 0.0107368 -0.0625785 188 38 26
-0.524431 0.012915 -0.0625165 183 42 29
-0.524705 0.0150944 -0.0624545 188 37 31
-0.526552 0.0172523 -0.0637481 185 39 38
-0.526828 0.0194434 -0.0636857 167 39 35
-0.527896 0.0216332 -0.0643051 159 37 21
-0.532189 0.0238407 -0.0676924 156 35 29
-0.533281 0.0260695 -0.0683276 158 41 24
-0.539778 -0.0309521 -0.0847484 114 62 33
-0.538348 -0.0284547 -0.0831672 115 61 33
-0.538632 -0.0261852 -0.0831032 115 61 29
-0.538917 -0.0239143 -0.0830391 114 65 28
-0.538348 -0.0215472 -0.0822217 117 59 15
-0.537782 -0.0191888 -0.0814078 116 58 36
-0.537218 -0.0168389 -0.0805973 168 49 44
-0.536656 -0.0144975 -0.0797902 215 61 57
-0.536098 -0.0121645 -0.0789864 227 54 51
-0.535541 -0.00983984 -0.078186 226 51 44
-0.534988 -0.00752349 -0.0773888 219 42 44
-0.533607 -0.00515663 -0.0758677 208 40 45
-0.533061 -0.00286171 -0.0750803 206 40 28
-0.529255 -0.000380882 -0.0714419 202 42 25
-0.526322 0.00200799 -0.0685722 199 40 22
-0.524222 0.00432169 -0.0664352 192 35 40
-0.522927 0.00657566 -0.0650044 187 35 28
-0.52242 0.00878426 -0.0642626 191 37 25
-0.521916 0.0109854 -0.0635238 183 33 14
-0.522188 0.0131593 -0.0634624 179 33 22
-0.522461 0.0153346 -0.063401 169 41 51
-0.523513 0.0175003 -0.0640166 172 35 33
-0.525356 0.0196696 -0.065317 166 37 22
-0.526421 0.0218601 -0.0659402 161 37 11
-0.529087 0.0240656 -0.0679497 145 31 49
-0.530976 0.0262928 -0.0692822 154 37 22
-0.53653 -0.0304909 -0.0849308 110 62 29
-0.535965 -0.028114 -0.0841101 113 61 30
-0.532886 -0.0254381 -0.0810502 115 59 28
-0.533167 -0.0231909 -0.0809874 109 60 35
-0.533449 -0.0209422 -0.0809244 112 58 32
-0.532897 -0.0186046 -0.0801206 121 58 26
-0.533178 -0.0163578 -0.0800577 193 55 46
-0.533459 -0.0141095 -0.0799948 221 55 55
-0.532909 -0.0117868 -0.0791945 222 52 51
-0.532362 -0.00947247 -0.0783975 214 48 50
-0.531816 -0.00716636 -0.0776038 211 38 40
-0.531273 -0.00486841 -0.0768133 209 45 46
-0.529916 -0.00252566 -0.0753046 202 41 39
-0.524566 3.58725e-05 -0.0702745 198 39 46
-0.522476 0.00236046 -0.0681276 192 42 42
-0.521188 0.00462121 -0.0666905 183 39 46
-0.519911 0.00686511 -0.065265 188 29 16
-0.520182 0.00903652 -0.0652042 185 34 18
-0.520454 0.0112093 -0.0651434 178 36 20
-0.520726 0.0133835 -0.0650826 170 33 35
-0.520999 0.015559 -0.0650217 170 33 28
-0.521271 0.017736 -0.0649608 165 36 39
-0.523101 0.019902 -0.0662629 155 36 38
-0.524158 0.0220888 -0.0668872 151 35 35
-0.526805 0.0242915 -0.0688989 152 29 16
-0.52788 0.026508 -0.0695337 150 36 23
-0.534151 -0.030146 -0.0858696 110 63 34
-0.531087 -0.0274543 -0.0827955 113 63 29
-0.529714 -0.0250063 -0.0812468 115 56 27
-0.529993 -0.0227682 -0.0811847 111 57 30
-0.530273 -0.0205287 -0.0811225 110 59 35
-0.530553 -0.0182878 -0.0810603 118 58 38
-0.530833 -0.0160454 -0.0809981 198 51 48
-0.531114 -0.0138016 -0.0809359 218 49 50
-0.530569 -0.0114842 -0.0801358 213 47 46
-0.529208 -0.00910817 -0.0786075 210 42 46
-0.529487 -0.00687416 -0.0785455 210 36 40
-0.52895 -0.00458136 -0.0777553 207 35 31
-0.525994 -0.00214048 -0.0748111 205 34 19
-0.521513 0.000354266 -0.070515 195 38 49
-0.51945 0.00266771 -0.0683758 199 39 37
-0.518179 0.00491837 -0.0669441 200 38 26
-0.51845 0.00708862 -0.0668838 193 35 23
-0.517953 0.0092878 -0.0661422 182 36 21
-0.518224 0.0114564 -0.0660821 174 33 24
-0.518495 0.0136265 -0.0660219 164 32 24
-0.518767 0.0157979 -0.0659616 160 33 21
-0.519808 0.0179606 -0.0665822 157 29 24
-0.520081 0.0201392 -0.0665217 150 36 31
-0.521905 0.0223167 -0.0678307 149 40 38
-0.524532 0.0245164 -0.0698446 147 36 30
-0.525599 0.0267291 -0.0704805 142 43 23
-0.530116 -0.02958 -0.0852917 110 57 38
-0.527922 -0.0270142 -0.0829845 109 59 37
-0.527383 -0.0246774 -0.0821809 109 61 32
-0.526846 -0.022349 -0.0813806 108 60 29
-0.527124 -0.0201186 -0.0813192 110 57 26
-0.527402 -0.0178868 -0.0812578 123 54 32
-0.527681 -0.0156536 -0.0811964 199 54 39
-0.527959 -0.0134189 -0.081135 225 48 48
-0.527423 -0.0111117 -0.0803383 226 53 55
-0.527702 -0.00887889 -0.0802769 232 55 48
-0.527167 -0.00658312 -0.0794836 234 49 50
-0.525025 -0.00418285 -0.0772454 235 57 50
-0.52291 -0.00181077 -0.0750346 235 56 42
-0.518485 0.000670081 -0.0707537 227 49 45
-0.516448 0.00297255 -0.0686223 215 42 45
-0.516718 0.00514164 -0.0685626 193 39 37
-0.516224 0.00734358 -0.0678182 182 32 31
-0.516495 0.00951109 -0.0677586 180 33 16
-0.516765 0.01168 -0.0676989 176 33 25
-0.517036 0.0138502 -0.0676392 168 33 25
-0.517307 0.0160219 -0.0675795 163 25 20
-0.518345 0.0181854 -0.0682039 154 35 21
-0.518617 0.0203642 -0.0681439 149 21 24
-0.51966 0.0225436 -0.0687706 140 20 42
-0.523053 0.0247441 -0.0714844 143 20 32
-0.523328 0.0269493 -0.0714237 137 29 27
-0.531645 -0.0320627 -0.0900928 117 52 29
-0.528594 -0.02935 -0.0869777 117 54 28
-0.525595 -0.0266814 -0.0839146 111 60 38
-0.525061 -0.0243499 -0.0831113 106 58 43
-0.52453 -0.0220268 -0.0823113 103 58 44
-0.524807 -0.0198008 -0.0822506 109 55 33
-0.525894 -0.017658 -0.0829289 126 57 45
-0.526172 -0.0154245 -0.082868 207 62 54
-0.525639 -0.0131143 -0.0820683 227 57 54
-0.525917 -0.0108827 -0.0820074 226 56 52
-0.525386 -0.00858392 -0.0812111 225 52 50
-0.524054 -0.00623273 -0.0796889 226 47 53
-0.522733 -0.00389951 -0.0781792 230 46 49
-0.51907 -0.00143383 -0.0745483 237 48 32
-0.515481 0.000983407 -0.0709908 230 53 39
-0.514988 0.00319562 -0.0702406 217 51 48
-0.515258 0.00536497 -0.0701815 208 51 51
-0.514766 0.0075667 -0.0694343 196 42 42
-0.515036 0.00973444 -0.0693752 174 31 13
-0.515306 0.0119036 -0.0693161 168 23 25
-0.515577 0.0140741 -0.0692569 159 34 34
-0.516611 0.0162325 -0.0698852 159 23 13
-0.516882 0.0184101 -0.0698258 151 36 20
-0.517153 0.0205892 -0.0697664 144 34 29
-0.518193 0.0227693 -0.0703968 142 23 29
-0.520792 0.0249678 -0.0724233 137 26 28
-0.523422 0.0271946 -0.0744746 137 26 21
-0.527693 0.0294773 -0.0779907 134 24 27
-0.532353 -0.0344638 -0.0941902 111 62 37
-0.530111 -0.031831 -0.0917929 112 59 36
-0.527073 -0.02912 -0.088664 115 60 29
-0.524086 -0.026453 -0.0855873 113 57 30
-0.524363 -0.0242203 -0.085527 113 53 25
-0.523026 -0.021799 -0.083978 104 57 30
-0.523302 -0.0195727 -0.0839179 112 54 33
-0.524386 -0.0174292 -0.0846001 173 51 42
-0.524664 -0.0151955 -0.0845398 210 58 53
-0.524133 -0.0128855 -0.0837371 210 53 53
-0.524411 -0.0106536 -0.0836768 210 49 51
-0.52308 -0.00829014 -0.0821417 209 49 45
-0.52176 -0.00594474 -0.0806193 203 48 45
-0.521241 -0.00367204 -0.0798329 206 48 47
-0.516818 -0.00115928 -0.075477 211 45 42
-0.513258 0.00125055 -0.0719178 212 48 38
-0.513527 0.00341875 -0.0718592 212 46 42
-0.513797 0.0055883 -0.0718006 212 46 48
-0.513308 0.00778986 -0.0710507 207 49 50
-0.513577 0.00995783 -0.0709921 203 43 39
-0.513847 0.0121272 -0.0709334 178 37 22
-0.514117 0.0142979 -0.0708748 155 19 17
-0.515148 0.016457 -0.0715068 159 18 6
-0.515418 0.0186349 -0.071448 151 21 19
-0.515689 0.0208142 -0.0713891 139 38 35
-0.516726 0.022995 -0.0720233 139 22 35
-0.520094 0.0251997 -0.0747646 132 24 36
-0.525111 0.0274605 -0.0789915 130 25 23
-0.530254 0.0297794 -0.0833242 132 20 15
-0.53722 0.0321978 -0.0892936 133 21 4
-0.533355 -0.0346005 -0.0982782 114 60 27
-0.53025 -0.0318323 -0.0950542 115 58 28
-0.528026 -0.0292201 -0.092657 112 56 27
-0.524196 -0.0264313 -0.0887688 110 57 32
-0.522853 -0.0239917 -0.0872004 113 57 33
-0.52313 -0.0217573 -0.0871405 109 60 34
-0.523408 -0.0195215 -0.0870806 118 57 37
-0.523685 -0.0172843 -0.0870207 170 52 39
-0.523155 -0.0149663 -0.0862118 187 53 45
-0.523432 -0.012731 -0.0861519 178 39 48
-0.522904 -0.0104245 -0.0853464 171 39 44
-0.522378 -0.00812617 -0.0845442 176 38 40
-0.521855 -0.00583599 -0.0837453 179 39 34
-0.519749 -0.00344458 -0.0814869 183 40 30
-0.515343 -0.000934317 -0.0771113 187 39 37
-0.511798 0.00147348 -0.0735361 200 44 25
-0.512067 0.00364191 -0.0734781 204 44 24
-0.512336 0.0058117 -0.0734199 204 44 36
-0.511849 0.00801301 -0.0726673 206 52 38
-0.512118 0.0101812 -0.0726092 202 51 44
-0.512388 0.0123508 -0.072551 195 43 30
-0.512657 0.0145218 -0.0724929 168 35 20
-0.512926 0.0166942 -0.0724347 155 17 11
-0.513955 0.0188597 -0.0730704 145 22 15
-0.514225 0.0210392 -0.073012 141 23 17
-0.515258 0.0232207 -0.07365 141 25 21
-0.518614 0.0254275 -0.0764051 126 26 26
-0.526018 0.0277209 -0.0828464 124 26 22
-0.532868 0.030088 -0.0887705 124 25 18
-0.536524 0.0324563 -0.0917773 126 21 20
-0.565659 0.0405484 -0.117252 171 66 41
-0.541722 -0.0478075 -0.11103 114 61 32
-0.545638 -0.0460647 -0.114392 110 59 37
-0.545933 -0.0436872 -0.114329 111 61 35
-0.539917 -0.0403175 -0.108314 113 61 25
-0.539321 -0.0378398 -0.107416 109 59 32
-0.536974 -0.0351168 -0.104871 112 57 23
-0.532086 -0.0320698 -0.0999392 112 60 23
-0.528155 -0.0292101 -0.0959159 108 58 41
-0.524307 -0.0264093 -0.0919774 108 60 43
-0.522958 -0.0239593 -0.0903895 115 55 21
-0.523236 -0.0217153 -0.0903299 110 57 27
-0.523514 -0.0194699 -0.0902703 115 55 35
-0.523792 -0.017223 -0.0902106 147 48 44
-0.523259 -0.0148952 -0.0893922 153 45 43
-0.522728 -0.0125757 -0.0885771 146 37 23
-0.5222 -0.0102645 -0.0877654 130 34 38
-0.521674 -0.00796153 -0.086957 139 25 23
-0.521151 -0.00566665 -0.086152 142 33 27
-0.519835 -0.00332539 -0.0846108 151 32 31
-0.514637 -0.000757637 -0.0794612 160 39 26
-0.511091 0.00165347 -0.0758556 181 37 15
-0.510606 0.00386507 -0.0750971 180 36 34
-0.510875 0.00603514 -0.0750395 180 50 48
-0.511144 0.00820656 -0.0749819 191 35 31
-0.510659 0.0104047 -0.0742265 189 45 34
-0.510928 0.0125745 -0.0741689 185 42 44
-0.511197 0.0147457 -0.0741113 175 41 44
-0.512221 0.0169062 -0.0747509 150 30 25
-0.512491 0.0190846 -0.0746931 139 12 19
-0.512761 0.0212643 -0.0746352 144 28 17
-0.514553 0.0234475 -0.0759795 141 20 12
-0.517909 0.0256609 -0.0787598 130 20 10
-0.526125 0.0279741 -0.0860029 129 13 4
-0.533846 0.0303715 -0.0927785 126 21 19
-0.539256 0.0327998 -0.0974207 125 26 26
-0.558585 0.0357102 -0.114818 161 44 29
-0.563693 0.0383294 -0.119156 195 55 46
-0.564 0.0408049 -0.11909 207 79 56
-0.564307 0.0432819 -0.119024 189 59 51
-0.544351 -0.050738 -0.117173 113 61 34
-0.553995 -0.0499934 -0.12603 113 61 39
-0.55622 -0.0478821 -0.127799 111 56 35
-0.556522 -0.0454332 -0.127735 111 57 33
-0.556825 -0.0429827 -0.12767 110 57 38
-0.543999 -0.0385469 -0.115125 111 60 33
-0.539797 -0.0355174 -0.110792 111 61 33
-0.536559 -0.0326741 -0.107382 111 58 26
-0.530815 -0.029537 -0.101602 109 57 31
-0.525242 -0.0264918 -0.0959927 102 61 46
-0.523063 -0.0239266 -0.0936057 105 54 35
-0.523342 -0.0216729 -0.0935464 112 57 30
-0.52362 -0.0194177 -0.0934871 144 51 33
-0.523899 -0.0171612 -0.0934277 195 59 45
-0.523363 -0.0148234 -0.0925996 175 44 47
-0.522021 -0.0124198 -0.0910127 142 30 24
-0.521493 -0.0101039 -0.0901947 124 49 47
-0.520167 -0.00773208 -0.0886277 119 48 39
-0.520443 -0.00549661 -0.0885688 109 38 26
-0.518336 -0.00309691 -0.0862721 121 17 29
-0.515477 -0.000676797 -0.0832731 131 32 30
-0.51114 0.00179143 -0.0788945 147 32 22
-0.509897 0.0040502 -0.0774205 153 36 34
-0.509413 0.00625857 -0.0766594 166 37 27
-0.509682 0.00843026 -0.0766022 174 41 17
-0.50995 0.0106033 -0.0765451 176 36 23
-0.510219 0.0127778 -0.0764878 173 36 42
-0.510488 0.0149536 -0.0764306 168 40 41
-0.510757 0.0171308 -0.0763733 160 37 24
-0.511027 0.0193094 -0.076316 139 26 23
-0.512052 0.0214865 -0.0769617 131 17 25
-0.514611 0.0236767 -0.0790304 128 20 25
-0.518763 0.0259074 -0.0825737 129 23 19
-0.527048 0.0282406 -0.0899429 128 13 13
-0.536543 0.0306918 -0.0984203 121 15 30
-0.538554 0.033063 -0.0999546 122 24 13
-0.555063 0.0359049 -0.114894 146 34 25
-0.557248 0.0384096 -0.116571 205 52 40
-0.5585 0.0408979 -0.117383 227 55 43
-0.560717 0.0434453 -0.119083 208 52 40
-0.554616 -0.0551507 -0.130757 114 63 27
-0.554919 -0.0527005 -0.130693 113 63 34
-0.555221 -0.0502487 -0.130629 110 57 45
-0.55456 -0.0476324 -0.129638 106 56 44
-0.556796 -0.0454986 -0.131433 106 59 48
-0.55613 -0.0428841 -0.130437 111 57 39
-0.555467 -0.0402801 -0.129447 110 58 28
-0.551945 -0.0372712 -0.125719 110 59 30
-0.545713 -0.0339291 -0.119404 112 55 37
-0.546009 -0.0315329 -0.119341 113 56 35
-0.531243 -0.0272186 -0.104889 121 55 38
-0.525639 -0.0241932 -0.0992075 132 51 32
-0.525093 -0.0218198 -0.0983589 146 54 30
-0.525374 -0.0195452 -0.0982996 193 60 38
-0.525654 -0.0172692 -0.0982402 212 51 47
-0.522653 -0.0146715 -0.0950588 184 46 47
-0.522932 -0.0124118 -0.0949999 150 37 27
-0.521588 -0.0100116 -0.0934 131 41 34
-0.520256 -0.00763004 -0.0918136 123 51 44
-0.518935 -0.00526688 -0.0902403 113 53 44
-0.517625 -0.00292193 -0.08868 119 34 25
-0.513989 -0.000449923 -0.0849216 120 46 23
-0.511188 0.00193052 -0.0819585 128 40 27
-0.509939 0.00419813 -0.0804666 127 35 36
-0.509453 0.0064154 -0.0796967 144 28 19
-0.508219 0.00865397 -0.0782228 153 28 10
-0.508488 0.0108273 -0.0781662 155 25 21
-0.508756 0.0130019 -0.0781095 160 28 18
-0.509025 0.015178 -0.0780527 156 29 33
-0.509293 0.0173555 -0.077996 155 41 23
-0.510315 0.0195275 -0.0786456 144 31 25
-0.5121 0.0217071 -0.0800101 130 15 15
-0.516996 0.0239138 -0.0842864 130 10 10
-0.522816 0.0261837 -0.0894203 125 17 10
-0.532151 0.0285697 -0.0978319 124 14 12
-0.536698 0.0309669 -0.101754 123 22 21
-0.538718 0.0333498 -0.10331 127 25 19
-0.546092 0.0359242 -0.109857 139 23 18
-0.553731 0.0385925 -0.116639 182 39 39
-0.554969 0.0410703 -0.117448 202 44 45
-0.553917 -0.0550813 -0.133535 114 60 35
-0.554219 -0.0526251 -0.133472 114 59 29
-0.554522 -0.0501674 -0.133408 112 59 35
-0.554825 -0.0477082 -0.133345 110 57 36
-0.555128 -0.0452474 -0.133281 106 58 45
-0.555431 -0.042785 -0.133218 111 57 36
-0.554768 -0.0401749 -0.132219 134 56 32
-0.553149 -0.0374362 -0.130298 183 61 46
-0.551544 -0.0347209 -0.128395 197 62 51
-0.551845 -0.0322805 -0.128332 200 64 50
-0.543768 -0.0287734 -0.120196 200 60 55
-0.536011 -0.0254035 -0.112382 205 56 52
-0.5294 -0.0222602 -0.105684 201 60 58
-0.529685 -0.019951 -0.105625 207 56 49
-0.528279 -0.0174657 -0.103942 204 50 45
-0.526053 -0.0149192 -0.101474 172 44 38
-0.524678 -0.0124788 -0.0998271 150 44 36
-0.524135 -0.0101278 -0.0989793 149 29 24
-0.520346 -0.00752707 -0.0950265 138 27 25
-0.519018 -0.00515424 -0.0934337 125 45 35
-0.516911 -0.00274621 -0.0910982 129 46 30
-0.513274 -0.000270658 -0.0873077 125 62 46
-0.512003 0.00202803 -0.085779 126 60 40
-0.509982 0.00434732 -0.0835377 128 46 20
-0.509493 0.00657355 -0.082759 133 25 15
-0.508254 0.00882077 -0.0812672 142 23 8
-0.507772 0.0110272 -0.0804977 134 23 16
-0.508041 0.0132065 -0.0804415 138 24 14
-0.508309 0.0153873 -0.0803851 137 34 24
-0.50933 0.0175585 -0.0810415 143 24 18
-0.510356 0.0197399 -0.0817006 144 41 23
-0.512914 0.0219275 -0.0838078 134 24 18
-0.518638 0.0241532 -0.0889034 126 6 23
-0.527815 0.0264756 -0.0972501 120 18 29
-0.532286 0.0288337 -0.101141 121 11 24
-0.535989 0.0312265 -0.104303 127 16 19
-0.538011 0.033616 -0.105873 146 22 16
-0.543593 0.0361428 -0.110792 141 18 4
-0.550245 0.0387739 -0.116707 152 20 16
-0.552399 0.0412822 -0.118386 168 23 24
-0.551291 -0.0546514 -0.134442 111 59 39
-0.552552 -0.0523746 -0.135319 110 60 35
-0.552854 -0.0499167 -0.135256 109 62 35
-0.553157 -0.0474572 -0.135193 110 59 32
-0.55346 -0.0449961 -0.13513 111 57 28
-0.553762 -0.0425334 -0.135067 118 56 31
-0.554065 -0.0400692 -0.135004 171 48 33
-0.553405 -0.0374636 -0.134002 195 43 36
-0.551791 -0.0347355 -0.132073 200 38 40
-0.550193 -0.0320308 -0.130163 215 46 49
-0.543059 -0.0286441 -0.122875 226 41 53
-0.538839 -0.0256977 -0.118429 225 50 49
-0.534712 -0.0228145 -0.114081 217 54 51
-0.535001 -0.0204644 -0.114021 206 48 39
-0.530961 -0.0176665 -0.109768 194 42 32
-0.527848 -0.0150089 -0.10642 197 38 39
-0.526453 -0.012547 -0.104737 160 44 37
-0.525901 -0.0101755 -0.103872 149 30 31
-0.522878 -0.00761668 -0.100624 147 29 27
-0.519102 -0.00504059 -0.0966543 142 22 18
-0.516193 -0.0025697 -0.0935266 143 17 14
-0.514894 -0.000234057 -0.0919538 139 18 13
-0.512055 0.00216962 -0.0889034 132 24 33
-0.510789 0.00445996 -0.0873687 121 37 26
-0.509534 0.00673298 -0.0858465 124 26 17
-0.509045 0.00896053 -0.085062 127 22 13
-0.508558 0.0111804 -0.0842806 127 29 22
-0.508828 0.0133732 -0.0842245 132 19 10
-0.509098 0.0155675 -0.0841683 131 28 9
-0.510126 0.0177526 -0.084837 133 25 9
-0.511159 0.019948 -0.0855083 130 26 15
-0.516857 0.0221439 -0.0906292 125 15 13
-0.524351 0.0244121 -0.0974521 127 10 17
-0.527931 0.0267288 -0.100536 118 22 26
-0.530728 0.0290737 -0.102868 128 16 14
-0.535278 0.0314872 -0.106863 144 35 4
-0.5373 0.0338833 -0.108449 156 41 0
-0.54022 0.036331 -0.110884 158 32 4
-0.547702 0.0389893 -0.11764 138 12 35
-0.551241 -0.0572215 -0.13824 108 58 44
-0.551543 -0.0547607 -0.138178 107 58 47
-0.551845 -0.0522983 -0.138115 109 59 39
-0.553113 -0.0500036 -0.139006 111 60 32
-0.553416 -0.0475324 -0.138943 111 58 34
-0.55372 -0.0450596 -0.138881 113 60 30
-0.553056 -0.0424332 -0.137865 121 60 34
-0.553359 -0.039963 -0.137803 166 48 34
-0.552698 -0.0373513 -0.136792 179 38 25
-0.551084 -0.0346172 -0.134847 179 35 21
-0.548541 -0.031781 -0.131993 191 36 17
-0.545105 -0.0288643 -0.12827 205 46 35
-0.540823 -0.0258887 -0.123724 209 50 47
-0.537525 -0.0230797 -0.120148 200 49 48
-0.537817 -0.0207032 -0.120088 196 41 32
-0.533701 -0.0178717 -0.115722 204 44 48
-0.529674 -0.0151002 -0.111451 213 47 47
-0.527414 -0.0125395 -0.108909 194 38 41
-0.526856 -0.0101524 -0.10803 156 38 36
-0.524633 -0.00764251 -0.105532 152 39 30
-0.519187 -0.00492598 -0.0999022 152 31 14
-0.517059 -0.00249871 -0.0975075 151 22 22
-0.514959 -0.000100328 -0.0951426 152 15 19
-0.513664 0.00222675 -0.0935635 141 20 15
-0.513158 0.0044979 -0.0927506 133 18 15
-0.512654 0.0067611 -0.091941 129 13 12
-0.512152 0.00901635 -0.0911347 127 13 14
-0.511652 0.0112638 -0.0903317 127 4 16
-0.511925 0.0134839 -0.0902754 128 13 11
-0.512971 0.0156906 -0.0909655 132 9 12
-0.515587 0.0178869 -0.0931665 126 26 9
-0.51744 0.020118 -0.09463 121 12 8
-0.522537 0.0223644 -0.0992103 127 4 5
-0.526101 0.0246625 -0.102309 125 14 16
-0.528048 0.0269842 -0.103849 122 7 15
-0.530012 0.0293274 -0.105403 130 21 16
-0.533703 0.0317301 -0.108609 144 20 13
-0.535717 0.0341275 -0.110203 155 35 18
-0.53775 0.0365473 -0.111811 153 38 14
-0.543365 0.0391319 -0.116842 144 24 16
-0.546377 0.0416616 -0.119377 139 7 9
-0.55053 -0.0571568 -0.141049 111 58 39
-0.549872 -0.0545098 -0.140029 109 57 38
-0.551135 -0.0522216 -0.140925 111 57 30
-0.552403 -0.0499211 -0.141825 111 54 31
-0.552707 -0.0474439 -0.141763 107 56 41
-0.553011 -0.044965 -0.1417 107 57 33
-0.553315 -0.0424846 -0.141638 109 56 41
-0.55265 -0.0398562 -0.140615 130 48 34
-0.551988 -0.0372385 -0.139596 143 38 19
-0.550373 -0.0344983 -0.137634 150 29 11
-0.547828 -0.0316562 -0.134755 159 27 9
-0.546251 -0.0289697 -0.132837 169 30 20
-0.542843 -0.0260832 -0.129115 181 30 28
-0.539497 -0.0232469 -0.125459 181 38 41
-0.53621 -0.0204596 -0.121869 208 47 32
-0.536502 -0.0180813 -0.121809 215 47 50
-0.533271 -0.0153611 -0.118282 206 47 47
-0.530096 -0.0126868 -0.114816 194 36 22
-0.527823 -0.010129 -0.112242 173 34 27
-0.525579 -0.00760279 -0.109701 157 40 32
-0.523365 -0.00510754 -0.107193 155 36 22
-0.517936 -0.00242674 -0.101539 156 32 25
-0.515816 -1.34856e-05 -0.0991344 149 29 19
-0.51451 0.00232805 -0.0975293 141 28 12
-0.513998 0.00461343 -0.0967035 138 23 5
-0.514273 0.00685729 -0.0966472 144 11 8
-0.514548 0.00910256 -0.0965908 137 16 7
-0.514038 0.0113734 -0.0957687 129 22 15
-0.514313 0.0136169 -0.0957123 128 21 13
-0.516958 0.0158173 -0.097962 135 10 2
-0.518032 0.0180676 -0.0986803 125 13 18
-0.521535 0.0203121 -0.101756 122 11 16
-0.524271 0.0225971 -0.104082 124 10 15
-0.52621 0.0249088 -0.10563 119 21 27
-0.528165 0.0272418 -0.107192 120 2 12
-0.530138 0.0295965 -0.108767 128 10 13
-0.532127 0.031973 -0.110355 140 19 10
-0.534134 0.0343717 -0.111957 146 29 18
-0.53529 0.0367627 -0.112734 145 30 27
-0.540859 0.0393447 -0.117767 150 36 18
-0.542048 0.0417868 -0.118568 129 0 7
-0.549157 -0.0544385 -0.142843 110 59 25
-0.549459 -0.0519698 -0.142782 109 57 24
-0.55169 -0.0498382 -0.144657 108 56 28
-0.552966 -0.0475195 -0.145571 106 56 26
-0.55327 -0.0450288 -0.145509 108 55 21
-0.551633 -0.0422312 -0.143501 110 53 20
-0.551937 -0.0397489 -0.14344 111 54 26
-0.551275 -0.0371251 -0.142412 109 45 18
-0.549659 -0.0343788 -0.140433 122 25 15
-0.547112 -0.0315307 -0.13753 134 27 16
-0.544602 -0.0287201 -0.134665 145 24 19
-0.543971 -0.026169 -0.133679 156 21 32
-0.538777 -0.0231046 -0.128152 195 38 24
-0.536378 -0.0204086 -0.125415 210 51 44
-0.536671 -0.0180195 -0.125355 202 48 45
-0.533423 -0.0152875 -0.121782 186 39 40
-0.531097 -0.01268 -0.119128 171 30 26
-0.528802 -0.0101053 -0.116509 167 24 19
-0.526537 -0.00756249 -0.113925 150 36 18
-0.524301 -0.00505114 -0.111373 148 38 25
-0.523751 -0.00268031 -0.110492 151 37 23
-0.522376 -0.000268419 -0.108797 142 28 17
-0.520196 0.00216872 -0.106311 134 28 17
-0.520476 0.0044591 -0.106254 131 24 19
-0.520757 0.00675092 -0.106197 137 19 15
-0.520222 0.00907376 -0.105338 129 19 20
-0.520502 0.0113637 -0.105281 123 30 19
-0.520782 0.0136551 -0.105224 123 15 14
-0.52188 0.015933 -0.105969 126 10 11
-0.522982 0.0182221 -0.106717 122 12 13
-0.52409 0.0205225 -0.107468 120 12 19
-0.525202 0.0228342 -0.108223 124 16 21
-0.526319 0.0251573 -0.10898 131 20 15
-0.528283 0.0275017 -0.110564 119 12 13
-0.528569 0.0298381 -0.110505 128 1 5
-0.530551 0.0322159 -0.112102 141 9 5
-0.532551 0.034616 -0.113712 145 22 8
-0.533702 0.0370078 -0.114493 147 30 19
-0.538365 0.0395566 -0.118688 150 37 23
-0.539544 0.0419941 -0.11949 92 2 22
-0.540729 0.0444438 -0.120296 40 1 0
-0.54282 0.0469593 -0.121978 31 9 0
-0.547482 -0.0541869 -0.144699 110 60 26
-0.547783 -0.051718 -0.144639 108 59 29
-0.550006 -0.0495849 -0.146523 107 59 27
-0.55225 -0.0474302 -0.148426 108 57 12
-0.552554 -0.0449334 -0.148364 107 57 9
-0.550916 -0.0421294 -0.14634 107 55 24
-0.550254 -0.0394952 -0.145304 103 49 21
-0.549596 -0.0368716 -0.144273 83 25 14
-0.547987 -0.0341263 -0.142286 78 7 11
-0.545452 -0.0312797 -0.13937 87 4 13
-0.542952 -0.0284706 -0.136494 101 10 20
-0.542324 -0.0259197 -0.135504 131 19 27
-0.537152 -0.0228584 -0.129953 191 52 32
-0.534764 -0.0201638 -0.127204 193 47 34
-0.535056 -0.0177745 -0.127145 188 35 18
-0.533577 -0.0152132 -0.125313 170 32 19
-0.532112 -0.0126731 -0.123498 161 17 16
-0.529794 -0.0100811 -0.120833 161 28 13
-0.527507 -0.00752161 -0.118204 144 15 10
-0.526094 -0.00505469 -0.116451 141 13 11
-0.52638 -0.00271874 -0.116393 142 42 21
-0.52582 -0.000330676 -0.115494 135 29 5
-0.523589 0.0021386 -0.112933 128 31 18
-0.523872 0.00445885 -0.112876 121 19 24
-0.523323 0.00681536 -0.111991 124 13 23
-0.52195 0.00919277 -0.110291 122 16 29
-0.521409 0.011527 -0.109418 111 21 23
-0.52169 0.0138333 -0.109361 113 12 14
-0.521972 0.0161411 -0.109304 117 9 15
-0.522254 0.0184503 -0.109247 119 9 14
-0.523362 0.0207564 -0.110006 114 7 27
-0.524475 0.0230739 -0.110768 118 23 24
-0.525592 0.0254027 -0.111533 133 20 12
-0.526715 0.0277432 -0.112302 134 17 18
-0.527843 0.0300952 -0.113074 130 0 6
-0.529826 0.0324796 -0.114686 135 15 6
-0.530968 0.0348603 -0.115468 142 12 2
-0.532978 0.0372841 -0.1171 149 22 3
-0.536759 0.0398046 -0.120467 151 22 11
-0.537935 0.0422429 -0.121274 113 30 25
-0.539116 0.0446935 -0.122085 120 16 7
-0.540303 0.0471565 -0.122898 128 12 8
-0.543913 -0.0535794 -0.144619 109 57 24
-0.544213 -0.0511217 -0.144559 109 56 26
-0.547363 -0.0491631 -0.14741 109 56 23
-0.549588 -0.0470112 -0.149313 108 59 26
-0.548927 -0.0443624 -0.148269 109 58 25
-0.548269 -0.0417242 -0.147229 103 58 31
-0.547615 -0.0390968 -0.146194 88 47 25
-0.546963 -0.03648 -0.145164 67 11 19
-0.54537 -0.0337425 -0.143178 47 7 8
-0.543791 -0.0310286 -0.14121 44 0 9
-0.541302 -0.028221 -0.138322 51 0 27
-0.540677 -0.0256705 -0.137328 112 6 34
-0.535527 -0.0226122 -0.131754 182 58 39
-0.533149 -0.019919 -0.128993 186 46 25
-0.53344 -0.0175294 -0.128935 175 35 14
-0.532848 -0.0150534 -0.127984 155 23 26
-0.531382 -0.0125081 -0.126153 152 19 23
-0.52993 -0.00998383 -0.124339 151 20 12
-0.52849 -0.0074802 -0.12254 132 4 17
-0.526211 -0.00493595 -0.1199 140 11 20
-0.526497 -0.00258955 -0.119843 145 38 26
-0.526783 -0.00024167 -0.119785 131 17 13
-0.525374 0.00219837 -0.118026 128 13 17
-0.523976 0.00461875 -0.116281 120 11 26
-0.522591 0.00701975 -0.114552 121 10 23
-0.522045 0.0093725 -0.113665 121 12 13
-0.522327 0.0116924 -0.113608 116 14 7
-0.521783 0.0140331 -0.112724 112 6 0
-0.521241 0.0163651 -0.111845 116 13 15
-0.521523 0.0186796 -0.111788 122 7 15
-0.522631 0.0209913 -0.112555 121 8 17
-0.522914 0.0233138 -0.112498 128 17 5
-0.524862 0.0256492 -0.114098 138 28 5
-0.525146 0.0279846 -0.114041 139 21 23
-0.52627 0.0303374 -0.114817 120 11 26
-0.528246 0.0327231 -0.116437 126 26 12
-0.529384 0.0351046 -0.117223 141 16 8
-0.531387 0.0375297 -0.118864 145 33 11
-0.535154 0.0400527 -0.122247 149 30 19
-0.536325 0.0424918 -0.123058 146 30 26
-0.537502 0.0449432 -0.123873 158 38 28
-0.537796 0.0473529 -0.123815 177 40 26
-0.54077 0.0499434 -0.126398 173 47 40
-0.541309 -0.0531528 -0.145502 105 55 31
-0.541608 -0.0507005 -0.145442 106 54 29
-0.542843 -0.0484114 -0.146349 108 56 30
-0.545032 -0.0462707 -0.148234 107 58 33
-0.545333 -0.0437966 -0.148174 111 54 35
-0.545634 -0.0413209 -0.148114 104 58 28
-0.544987 -0.0387002 -0.14708 91 45 16
-0.544342 -0.0360901 -0.146051 77 14 10
-0.542764 -0.0333605 -0.144066 57 10 2
-0.541201 -0.0306543 -0.1421 49 4 4
-0.539651 -0.0279713 -0.140151 59 6 12
-0.53903 -0.0254211 -0.139154 155 17 25
-0.534796 -0.022468 -0.134468 185 57 48
-0.532417 -0.0197695 -0.131683 175 40 32
-0.532708 -0.0173743 -0.131625 163 36 12
-0.531236 -0.0148086 -0.129771 150 33 18
-0.53065 -0.0123424 -0.128821 148 28 21
-0.529197 -0.00981296 -0.126991 142 22 13
-0.528619 -0.00737109 -0.126054 128 10 23
-0.527185 -0.0048772 -0.124248 148 16 30
-0.527472 -0.00251507 -0.124191 159 36 23
-0.5252 -1.01135e-07 -0.12154 144 25 15
-0.525486 0.00234958 -0.121483 134 16 13
-0.524081 0.00478008 -0.119717 130 9 14
-0.522689 0.00719103 -0.117966 128 13 16
-0.521309 0.00958266 -0.11623 125 8 11
-0.521592 0.0119079 -0.116174 126 10 12
-0.521048 0.0142533 -0.115283 114 6 6
-0.520506 0.0165902 -0.114397 126 20 17
-0.520788 0.0189099 -0.114341 127 15 20
-0.52107 0.021231 -0.114285 124 14 17
-0.522179 0.023555 -0.115059 129 16 13
-0.523293 0.0258905 -0.115836 136 29 14
-0.524413 0.0282375 -0.116616 137 20 34
-0.525537 0.0305962 -0.117401 128 21 10
-0.527513 0.0329885 -0.119036 131 3 0
-0.528652 0.035376 -0.11983 133 15 13
-0.530655 0.0378079 -0.121486 144 14 3
-0.533548 0.0403008 -0.124027 151 12 17
-0.534716 0.0427407 -0.124843 159 31 24
-0.535889 0.045193 -0.125662 165 36 29
-0.536182 0.047603 -0.125604 175 35 24
-0.538717 -0.0527281 -0.14638 102 59 31
-0.539014 -0.0502812 -0.146322 110 55 21
-0.540241 -0.0479962 -0.147229 108 55 31
-0.541473 -0.045699 -0.14814 105 59 38
-0.542711 -0.0433896 -0.149055 109 57 28
-0.543011 -0.0409194 -0.148996 104 54 28
-0.542371 -0.0383054 -0.147963 92 50 23
-0.542671 -0.0358378 -0.147904 87 32 14
-0.5411 -0.033109 -0.145911 90 15 17
-0.539543 -0.0304037 -0.143936 135 18 14
-0.538919 -0.0278376 -0.142927 192 45 26
-0.538297 -0.0252816 -0.141921 208 48 39
-0.534061 -0.0223232 -0.137194 187 53 47
-0.530798 -0.0195241 -0.133477 165 40 31
-0.531089 -0.0171286 -0.13342 154 35 27
-0.5305 -0.0146475 -0.132458 149 18 16
-0.52904 -0.0120978 -0.130605 145 7 12
-0.52846 -0.00964128 -0.129656 132 14 17
-0.527882 -0.00719417 -0.128711 123 10 20
-0.527307 -0.0047563 -0.12777 156 19 42
-0.526735 -0.00232768 -0.126833 163 38 29
-0.526165 9.17859e-05 -0.1259 153 27 4
-0.523902 0.00259141 -0.123239 142 15 9
-0.524187 0.00494285 -0.123183 133 18 26
-0.521951 0.00739761 -0.120557 131 19 35
-0.520571 0.0097938 -0.118806 131 21 21
-0.520027 0.0121476 -0.117909 129 17 20
-0.520309 0.0144746 -0.117853 122 2 16
-0.519767 0.0168162 -0.11696 127 17 25
-0.520049 0.0191412 -0.116904 137 16 19
-0.520332 0.0214676 -0.116849 127 16 16
-0.521441 0.0237973 -0.11763 127 7 20
-0.521725 0.0261317 -0.117574 132 17 28
-0.52284 0.0284796 -0.118359 138 24 22
-0.5248 0.0308562 -0.119996 132 16 10
-0.52593 0.0332326 -0.120791 121 2 0
-0.527064 0.0356209 -0.12159 128 0 12
-0.52906 0.0380542 -0.123254 143 19 8
-0.531942 0.040549 -0.125808 150 18 21
-0.533105 0.0429897 -0.126628 157 27 22
-0.534274 0.0454428 -0.127452 157 33 26
-0.534567 0.0478531 -0.127394 157 37 29
-0.53676 -0.0549244 -0.148279 105 57 31
-0.536136 -0.0523054 -0.147255 104 59 33
-0.536432 -0.0498638 -0.147197 107 54 30
-0.536728 -0.0474207 -0.147139 107 53 26
-0.538873 -0.0452897 -0.149016 106 56 31
-0.540101 -0.0429845 -0.149932 108 60 34
-0.5404 -0.0405197 -0.149874 106 56 26
-0.540699 -0.0380533 -0.149815 113 50 24
-0.539137 -0.0353157 -0.147814 164 37 25
-0.539435 -0.0328575 -0.147756 187 52 36
-0.537885 -0.0301531 -0.145774 201 52 45
-0.537264 -0.0275873 -0.14476 220 53 45
-0.536646 -0.0250316 -0.143751 212 43 40
-0.533322 -0.0221776 -0.139933 182 34 36
-0.529179 -0.0192786 -0.135271 156 33 31
-0.52947 -0.0168829 -0.135215 141 23 31
-0.528883 -0.014402 -0.13425 137 19 25
-0.527431 -0.0118532 -0.132389 134 16 11
-0.526853 -0.00939697 -0.131436 124 11 18
-0.526279 -0.0069501 -0.130488 118 6 20
-0.526567 -0.00457327 -0.130431 157 36 35
-0.525994 -0.00213943 -0.129487 164 32 22
-0.525425 0.000285205 -0.128547 152 18 1
-0.52316 0.00278929 -0.125864 137 24 29
-0.522602 0.00518497 -0.12494 139 17 26
-0.520376 0.00763844 -0.122303 138 16 33
-0.519829 0.0100059 -0.121394 132 22 30
-0.519285 0.0123646 -0.12049 128 18 29
-0.518743 0.0147146 -0.119589 123 4 20
-0.519025 0.0170433 -0.119534 128 21 21
-0.519308 0.0193735 -0.119479 139 12 12
-0.51959 0.0217052 -0.119424 134 18 14
-0.519873 0.0240384 -0.119369 131 11 17
-0.520984 0.0263804 -0.120158 135 15 19
-0.521268 0.0287216 -0.120103 134 24 23
-0.52322 0.0310996 -0.121747 132 26 5
-0.524346 0.0334768 -0.122547 115 0 4
-0.525476 0.0358659 -0.12335 123 3 11
-0.528321 0.0383341 -0.125893 138 15 6
-0.530336 0.0407972 -0.127588 145 16 9
-0.532368 0.0432836 -0.129298 147 20 10
-0.533537 0.045743 -0.13013 148 19 9
-0.534184 -0.0544968 -0.149149 104 57 34
-0.53266 -0.0517133 -0.147165 105 58 35
-0.532954 -0.0492826 -0.147108 105 55 40
-0.534157 -0.0470105 -0.148012 105 56 36
-0.535366 -0.0447264 -0.14892 106 55 32
-0.535662 -0.0422799 -0.148862 107 53 26
-0.536878 -0.0399765 -0.149774 119 50 34
-0.537175 -0.0375212 -0.149717 169 47 34
-0.537472 -0.0350644 -0.149659 199 53 48
-0.536848 -0.0324783 -0.148633 203 51 43
-0.536227 -0.0299025 -0.147611 198 45 39
-0.535609 -0.027337 -0.146594 200 37 38
-0.534994 -0.0247816 -0.145581 191 40 29
-0.531685 -0.0219295 -0.141748 179 38 31
-0.52756 -0.0190331 -0.137066 161 30 23
-0.526977 -0.0165487 -0.136097 147 20 28
-0.527267 -0.0141565 -0.136041 135 14 24
-0.525821 -0.0116085 -0.134173 126 13 14
-0.525246 -0.00915258 -0.133217 114 7 13
-0.524675 -0.006706 -0.132265 99 3 13
-0.524962 -0.00432894 -0.132209 156 38 27
-0.52525 -0.00195035 -0.132154 165 36 28
-0.52468 0.000479487 -0.131206 157 35 11
-0.523263 0.0029442 -0.129379 149 29 17
-0.521857 0.00538882 -0.127569 146 19 19
-0.518801 0.00787931 -0.124049 150 10 23
-0.519084 0.0102189 -0.123994 138 6 28
-0.518539 0.0125825 -0.123082 132 18 21
-0.517997 0.0149374 -0.122175 120 4 5
-0.517458 0.0172836 -0.121271 133 19 2
-0.51774 0.0196141 -0.121217 137 16 17
-0.518022 0.021946 -0.121162 132 13 31
-0.518305 0.0242795 -0.121107 128 17 25
-0.519411 0.0266223 -0.121901 140 19 12
-0.520523 0.0289768 -0.122698 142 22 11
-0.52164 0.031343 -0.123499 133 20 10
-0.522762 0.033721 -0.124303 111 0 1
-0.524733 0.0361397 -0.125977 109 9 2
-0.527579 0.0386154 -0.128543 124 3 6
-0.529594 0.0410854 -0.130255 133 22 6
-0.531627 0.0435789 -0.131981 136 9 10
-0.531919 0.0459935 -0.131924 144 6 6
-0.531619 -0.0540712 -0.150015 109 56 19
-0.53101 -0.0514655 -0.148994 109 55 19
-0.531303 -0.0490346 -0.148937 103 53 42
-0.532502 -0.0467617 -0.149846 101 54 43
-0.532797 -0.044322 -0.149789 104 56 31
-0.533092 -0.0418809 -0.149732 107 53 28
-0.533387 -0.0394382 -0.149676 125 51 44
-0.534594 -0.0371317 -0.150588 183 48 45
-0.53489 -0.0346803 -0.150531 193 49 43
-0.535186 -0.0322273 -0.150474 187 43 33
-0.534569 -0.0296518 -0.149449 176 37 26
-0.533954 -0.0270866 -0.148428 177 35 25
-0.533343 -0.0245315 -0.147412 170 37 25
-0.530939 -0.0217827 -0.144504 161 35 26
-0.52594 -0.0187875 -0.138861 155 21 17
-0.525361 -0.0163034 -0.137889 151 20 2
-0.52565 -0.013911 -0.137833 132 21 21
-0.52421 -0.0113638 -0.135957 120 3 18
-0.523639 -0.00890815 -0.134998 93 0 11
-0.523927 -0.0065271 -0.134943 64 1 10
-0.523358 -0.00408453 -0.133988 150 37 15
-0.523645 -0.00170569 -0.133933 167 40 19
-0.523079 0.000723868 -0.132982 163 34 18
-0.521667 0.00318776 -0.131148 153 28 14
-0.521953 0.00555545 -0.131093 145 22 17
-0.518052 0.00808797 -0.126659 151 13 12
-0.517508 0.0104601 -0.125741 143 19 17
-0.516966 0.0128234 -0.124826 137 16 8
-0.516427 0.0151781 -0.123915 123 0 0
-0.516709 0.0175123 -0.123861 133 19 13
-0.516172 0.0198547 -0.122954 136 20 30
-0.516454 0.0221869 -0.1229 137 13 19
-0.517556 0.024524 -0.123698 132 12 29
-0.517839 0.0268642 -0.123644 139 19 25
-0.518947 0.0292195 -0.124446 138 21 21
-0.520892 0.0316053 -0.126114 125 23 8
-0.521177 0.0339653 -0.126059 89 0 6
-0.523141 0.0363852 -0.127741 94 0 0
-0.525976 0.0388629 -0.13032 108 10 18
-0.527984 0.0413342 -0.13204 122 3 13
-0.530009 0.0438291 -0.133774 122 10 16
-0.530301 0.0462439 -0.133718 124 14 15
-0.529966 -0.0538231 -0.151847 105 57 23
-0.529359 -0.0512178 -0.150822 108 55 23
-0.529652 -0.0487866 -0.150766 104 54 35
-0.530847 -0.0465128 -0.151679 101 56 41
-0.531141 -0.0440729 -0.151623 103 57 37
-0.531436 -0.0416315 -0.151567 103 55 31
-0.53173 -0.0391885 -0.151511 119 51 35
-0.532933 -0.0368812 -0.152428 163 45 31
-0.533229 -0.0344295 -0.152372 168 40 25
-0.533524 -0.0319763 -0.152315 165 34 13
-0.53291 -0.0294011 -0.151287 158 30 27
-0.533206 -0.0269503 -0.15123 156 28 20
-0.532594 -0.0243894 -0.150206 153 28 24
-0.53019 -0.0216351 -0.147273 142 29 28
-0.524321 -0.0185419 -0.140656 137 26 23
-0.523744 -0.0160581 -0.13968 132 14 11
-0.524033 -0.0136654 -0.139625 117 8 16
-0.5226 -0.0111191 -0.137742 99 3 25
-0.522032 -0.00866372 -0.136779 51 0 26
-0.522319 -0.00628238 -0.136725 33 3 16
-0.521753 -0.00384009 -0.135766 134 17 3
-0.52204 -0.00146099 -0.135712 163 42 20
-0.521476 0.000968287 -0.134757 156 33 29
-0.520072 0.00343133 -0.132916 147 30 19
-0.519516 0.00583692 -0.131974 142 21 8
-0.517299 0.00829759 -0.129281 145 16 13
-0.516755 0.0106747 -0.128356 140 14 26
-0.515393 0.0130644 -0.12657 131 10 20
-0.514857 0.0154187 -0.125656 108 6 0
-0.515138 0.0177532 -0.125602 127 15 21
-0.514604 0.0200954 -0.124692 144 21 18
-0.515702 0.0224267 -0.125495 144 14 16
-0.515984 0.0247657 -0.125441 130 20 20
-0.516266 0.0271062 -0.125388 137 17 21
-0.51737 0.0294622 -0.126193 135 19 18
-0.518479 0.03183 -0.127003 122 15 5
-0.519593 0.0342096 -0.127815 68 0 0
-0.519877 0.0365714 -0.127761 40 1 3
-0.523524 0.0390749 -0.131211 51 0 13
-0.526373 0.0415831 -0.133825 74 0 13
-0.527525 0.0440326 -0.134667 79 2 9
-0.528682 0.0464944 -0.135513 68 1 7
-0.529505 -0.0513098 -0.154602 100 57 37
-0.529799 -0.0488672 -0.154547 100 57 34
-0.530093 -0.046423 -0.154491 103 55 28
-0.530388 -0.0439772 -0.154436 102 54 30
-0.530682 -0.04153 -0.15438 104 55 20
-0.530977 -0.0390811 -0.154325 111 52 15
-0.53218 -0.036768 -0.155251 125 45 22
-0.532476 -0.0343104 -0.155195 130 30 15
-0.532772 -0.0318512 -0.155139 134 22 8
-0.533068 -0.0293904 -0.155083 137 20 16
-0.532453 -0.0268134 -0.154046 133 27 20
-0.531841 -0.0242467 -0.153013 132 13 25
-0.529436 -0.0214868 -0.150055 125 13 21
-0.523566 -0.0183888 -0.14338 119 17 16
-0.522128 -0.0158128 -0.141472 112 17 10
-0.522416 -0.0134198 -0.141418 94 12 15
-0.520989 -0.0108743 -0.139527 65 0 15
-0.520424 -0.00841922 -0.138561 28 5 12
-0.519862 -0.00597349 -0.137599 33 3 5
-0.520148 -0.00359565 -0.137545 98 6 8
-0.519588 -0.0011629 -0.136587 145 41 32
-0.51903 0.00126062 -0.135634 151 36 18
-0.517639 0.00371724 -0.133793 145 31 14
-0.515434 0.00619054 -0.131089 142 16 10
-0.515716 0.00853961 -0.131036 148 15 17
-0.515175 0.0109164 -0.130107 146 16 16
-0.513819 0.0133053 -0.128314 126 6 18
-0.513286 0.0156594 -0.127397 105 0 4
-0.513567 0.0179942 -0.127344 131 4 1
-0.513848 0.0203304 -0.127291 144 13 13
-0.514129 0.0226681 -0.127238 141 14 18
-0.514411 0.0250074 -0.127184 134 16 21
-0.514693 0.0273481 -0.127131 136 19 20
-0.515793 0.029705 -0.127941 140 16 20
-0.516898 0.0320735 -0.128755 128 18 15
-0.517181 0.034429 -0.128702 62 0 1
-0.518292 0.036816 -0.129518 23 1 7
-0.519408 0.0392149 -0.130339 25 0 2
-0.523908 0.0417904 -0.134713 34 3 2
-0.525051 0.0442352 -0.135556 33 1 0
-0.5262 0.0466923 -0.136402 33 1 0
-0.527847 -0.0510609 -0.15644 104 58 22
-0.52814 -0.0486179 -0.156385 105 55 21
-0.528434 -0.0461735 -0.15633 108 55 10
-0.528728 -0.0437275 -0.156275 102 58 19
-0.529022 -0.0412799 -0.15622 103 56 20
-0.53022 -0.0389732 -0.157151 103 54 16
-0.530515 -0.0365168 -0.157096 99 44 13
-0.53081 -0.0340589 -0.157041 86 14 11
-0.532016 -0.0317255 -0.157975 79 2 8
-0.532312 -0.0292588 -0.15792 88 3 10
-0.532609 -0.0267905 -0.157865 88 8 9
-0.531085 -0.0241033 -0.155834 93 3 10
-0.528679 -0.0213379 -0.15285 91 9 5
-0.522807 -0.0182349 -0.146116 83 6 7
-0.52051 -0.0155674 -0.143264 61 5 5
-0.520798 -0.0131742 -0.14321 46 3 5
-0.519378 -0.0106295 -0.141312 32 3 2
-0.518816 -0.00817469 -0.140343 22 0 3
-0.518257 -0.00572923 -0.139378 26 0 9
-0.5177 -0.00329308 -0.138416 68 1 11
-0.517986 -0.000918703 -0.138363 148 35 33
-0.515763 0.00159859 -0.135612 162 34 21
-0.514391 0.0040433 -0.13378 158 30 13
-0.513851 0.00643231 -0.132843 156 19 7
-0.513313 0.00881247 -0.131911 154 14 10
-0.512778 0.0111838 -0.130983 143 18 17
-0.512245 0.0135463 -0.130058 124 5 3
-0.511715 0.0159001 -0.129138 97 0 9
-0.511996 0.0182352 -0.129086 128 7 5
-0.512276 0.0205717 -0.129033 147 14 8
-0.512557 0.0229097 -0.12898 146 24 9
-0.512838 0.0252492 -0.128928 146 21 17
-0.513119 0.0275902 -0.128875 144 24 20
-0.513401 0.0299326 -0.128823 150 28 17
-0.514498 0.0322969 -0.129637 138 32 20
-0.5156 0.0346728 -0.130455 74 0 7
-0.515883 0.03703 -0.130402 21 8 7
-0.51699 0.0394245 -0.131223 26 4 2
-0.518935 0.0418721 -0.132929 27 5 1
-0.521741 0.0443897 -0.135544 26 5 4
-0.522877 0.0468367 -0.136387 24 4 4
-0.526188 -0.0508118 -0.158278 107 55 17
-0.527379 -0.048533 -0.159214 105 54 18
-0.527673 -0.0460827 -0.15916 105 53 18
-0.527967 -0.0436307 -0.159105 100 55 31
-0.528261 -0.0411773 -0.159051 101 57 17
-0.528555 -0.0387222 -0.158996 98 51 17
-0.529755 -0.0364024 -0.159936 82 33 19
-0.53005 -0.0339385 -0.159881 54 9 13
-0.530346 -0.0314731 -0.159826 34 5 9
-0.530642 -0.0290062 -0.159772 40 3 1
-0.530938 -0.0265377 -0.159717 41 2 4
-0.531234 -0.0240676 -0.159662 44 1 9
-0.527026 -0.0210874 -0.154682 43 3 0
-0.522044 -0.0180803 -0.148865 42 0 0
-0.518893 -0.015322 -0.145056 31 1 1
-0.51918 -0.0129285 -0.145003 28 3 8
-0.518615 -0.0104589 -0.144022 26 3 11
-0.517208 -0.00793015 -0.142125 18 0 9
-0.516652 -0.00548498 -0.141156 21 2 9
-0.516099 -0.00304906 -0.140192 44 1 11
-0.515548 -0.000622402 -0.139232 145 23 38
-0.512523 0.00193368 -0.13559 168 39 45
-0.511986 0.00432607 -0.13465 175 33 20
-0.511452 0.00670953 -0.133714 174 31 12
-0.51092 0.00908418 -0.132783 162 20 22
-0.510391 0.01145 -0.131855 156 30 18
-0.509864 0.0138071 -0.130931 148 12 0
-0.510144 0.0161409 -0.13088 92 0 4
-0.510424 0.0184762 -0.130828 118 4 6
-0.510704 0.0208129 -0.130776 145 7 11
-0.510984 0.0231512 -0.130724 151 23 10
-0.511265 0.0254909 -0.130672 152 24 17
-0.511546 0.0278322 -0.130619 153 23 25
-0.511827 0.030175 -0.130567 153 33 32
-0.512108 0.0325192 -0.130515 144 34 25
-0.513202 0.0348908 -0.131334 80 4 21
-0.513484 0.0372431 -0.131281 24 8 13
-0.515404 0.0396694 -0.132981 29 7 10
-0.515688 0.042035 -0.132929 30 7 10
-0.517627 0.0444958 -0.134643 34 10 7
-0.520423 0.0470326 -0.13727 39 12 4
-0.524529 -0.0505628 -0.160116 105 54 24
-0.525716 -0.0482831 -0.161057 104 55 19
-0.526009 -0.0458325 -0.161003 103 55 25
-0.526302 -0.0433803 -0.160949 103 54 27
-0.526596 -0.0409266 -0.160895 101 56 20
-0.52779 -0.0386131 -0.16184 96 50 23
-0.528991 -0.0362874 -0.16279 79 33 20
-0.529286 -0.0338176 -0.162735 55 13 8
-0.529582 -0.0313462 -0.162681 37 12 3
-0.529878 -0.0288733 -0.162627 37 6 1
-0.530174 -0.0263988 -0.162572 31 6 3
-0.53047 -0.0239226 -0.162518 32 3 6
-0.528051 -0.0211388 -0.159468 40 0 4
-0.522148 -0.0180174 -0.152585 32 0 3
-0.518981 -0.0152471 -0.148726 30 0 0
-0.519269 -0.0128426 -0.148673 25 1 1
-0.517849 -0.0102875 -0.146744 18 6 8
-0.517287 -0.007822 -0.145759 14 2 12
-0.515885 -0.00530315 -0.143855 20 5 9
-0.514496 -0.00280502 -0.141968 28 1 2
-0.513948 -0.000378634 -0.141004 103 11 14
-0.510937 0.00217558 -0.137347 160 43 41
-0.509592 0.00460765 -0.135517 181 32 28
-0.509063 0.00698559 -0.134582 176 33 24
-0.508537 0.00935476 -0.133651 170 31 36
-0.508014 0.0117152 -0.132724 170 37 29
-0.507493 0.0140669 -0.131801 161 30 11
-0.507772 0.0163959 -0.13175 99 12 9
-0.508051 0.0187264 -0.131698 101 0 1
-0.50833 0.0210583 -0.131647 136 8 9
