ply
format ascii 1.0
element vertex 1066
property float x
property float y
property float z
property uchar diffuse_red
property uchar diffuse_green
property uchar diffuse_blue
end_header
-0.533889 0.0269032 -0.0677688 179 49 30
-0.53384 0.0288977 -0.0678819 179 45 35
-0.53379 0.0308935 -0.0679951 138 43 31
-0.533741 0.0328906 -0.0681084 99 30 21
-0.534294 0.0349875 -0.0688144 82 25 15
-0.532645 0.0168265 -0.0685056 177 64 57
-0.531996 0.0187458 -0.0680275 151 70 58
-0.531946 0.0207316 -0.0681406 155 74 61
-0.531896 0.0227188 -0.0682537 170 82 66
-0.531846 0.0247073 -0.0683669 190 72 63
-0.531796 0.026697 -0.0684802 213 50 47
-0.531746 0.028688 -0.0685935 217 54 50
-0.531696 0.0306803 -0.0687069 203 59 52
-0.532245 0.0327682 -0.0694131 185 52 42
-0.532195 0.0347667 -0.0695269 130 40 33
-0.532745 0.0368685 -0.070236 98 19 27
-0.533902 0.0390857 -0.0715477 71 20 14
-0.531153 0.0167033 -0.0698071 191 51 50
-0.530506 0.0186228 -0.0693271 165 40 53
-0.530455 0.0206088 -0.0694406 166 43 43
-0.530405 0.0225961 -0.0695541 180 52 50
-0.52976 0.0245054 -0.0690756 200 56 52
-0.52971 0.0264916 -0.0691891 221 49 42
-0.52966 0.0284791 -0.0693027 222 54 49
-0.529609 0.0304679 -0.0694163 216 51 49
-0.530153 0.0325518 -0.070123 209 57 50
-0.530698 0.0346445 -0.0708323 191 54 53
-0.530647 0.0366444 -0.0709465 173 48 43
-0.531195 0.038751 -0.0716587 120 28 17
-0.532346 0.0409765 -0.0729761 83 24 8
-0.530906 0.0147161 -0.0721926 232 57 46
-0.529066 0.0165151 -0.070513 226 49 38
-0.529015 0.0184999 -0.0706269 216 49 53
-0.528373 0.0204141 -0.0701467 216 54 50
-0.526561 0.0221731 -0.0684906 218 52 48
-0.52651 0.0241474 -0.0686038 221 58 50
-0.52646 0.026123 -0.0687171 228 54 48
-0.526409 0.0280998 -0.0688305 220 54 50
-0.526358 0.0300779 -0.0689439 210 47 49
-0.527479 0.0322428 -0.0702373 204 55 54
-0.528017 0.0343275 -0.0709446 209 50 53
-0.52915 0.0365223 -0.0722525 196 56 46
-0.529099 0.0385235 -0.0723673 177 49 32
-0.53024 0.0407442 -0.0736853 133 45 13
-0.531916 0.010826 -0.0756993 239 56 49
-0.53126 0.0127739 -0.0752037 240 59 49
-0.529408 0.0145923 -0.0734989 234 55 51
-0.527576 0.016392 -0.0718126 234 54 56
-0.526936 0.0183089 -0.0713306 231 50 50
-0.525713 0.0201489 -0.0702584 230 51 50
-0.523921 0.0219031 -0.0686081 225 56 52
-0.523871 0.0238704 -0.0687213 222 58 57
-0.52382 0.025839 -0.0688346 215 55 53
-0.523769 0.0278089 -0.068948 209 51 38
-0.524296 0.0298681 -0.0696482 209 55 43
-0.524825 0.0319361 -0.070351 208 57 52
-0.52594 0.0341091 -0.07165 201 52 54
-0.526474 0.0361985 -0.0723604 186 46 40
-0.527601 0.0384015 -0.0736739 172 42 42
-0.528141 0.0405128 -0.074392 166 41 44
-0.529879 0.0428598 -0.0763301 139 44 34
-0.531671 0.00879831 -0.0781314 219 47 47
-0.530408 0.010701 -0.0770145 236 52 48
-0.529154 0.012591 -0.0759058 241 59 47
-0.527317 0.0144071 -0.0742005 236 56 51
-0.5255 0.0162047 -0.072514 235 49 53
-0.524282 0.0180512 -0.0714378 229 52 54
-0.522497 0.0198155 -0.0697814 222 47 50
-0.521872 0.0217082 -0.0693089 219 43 51
-0.521821 0.0236721 -0.0694224 215 42 57
-0.521199 0.0255571 -0.0689515 204 52 48
-0.521147 0.02752 -0.0690649 200 47 46
-0.522241 0.029659 -0.0703501 204 45 47
-0.522764 0.031723 -0.0710533 202 50 44
-0.52329 0.0337957 -0.0717592 189 44 48
-0.524982 0.0360768 -0.073662 179 40 43
-0.526103 0.0382795 -0.0749807 176 45 48
-0.52664 0.0403907 -0.0757017 177 50 51
-0.528369 0.0427372 -0.0776474 158 51 51
-0.530817 0.00670871 -0.0799567 214 49 51
-0.530158 0.00867271 -0.0794513 215 51 49
-0.528301 0.0105213 -0.0777142 234 58 51
-0.527651 0.0124665 -0.0772168 235 56 50
-0.525234 0.0142225 -0.0748999 230 52 56
-0.524012 0.0160818 -0.0738116 229 47 51
-0.522222 0.017862 -0.0721367 221 49 51
-0.521022 0.0196939 -0.0710682 214 48 48
-0.520399 0.021587 -0.0705938 211 45 31
-0.519779 0.0234745 -0.0701211 206 44 49
-0.519727 0.0254363 -0.0702349 199 46 51
-0.519676 0.0273993 -0.0703487 200 46 53
-0.519624 0.0293636 -0.0704626 199 49 50
-0.520711 0.0315107 -0.0717534 194 44 30
-0.521231 0.0335794 -0.0724596 181 40 28
-0.522909 0.0358553 -0.0743633 171 38 34
-0.524604 0.0381574 -0.0762877 169 42 39
-0.525138 0.0402685 -0.0770115 164 43 46
-0.526859 0.0426144 -0.0789649 161 38 35
-0.530568 0.00465654 -0.0824171 232 59 58
-0.529301 0.00658275 -0.0812788 220 53 47
-0.528043 0.00849603 -0.0801489 219 53 47
-0.526795 0.0103965 -0.0790274 230 52 56
-0.525556 0.0122844 -0.0779143 226 54 52
-0.523158 0.0140387 -0.075597 222 47 55
-0.521368 0.015832 -0.0739098 219 44 51
-0.519598 0.0176072 -0.0722408 211 46 48
-0.519546 0.0195724 -0.0723552 213 44 46
-0.518926 0.0214658 -0.0718788 212 40 44
-0.518308 0.0233536 -0.0714043 204 50 56
-0.517692 0.025236 -0.0709315 202 45 51
-0.51764 0.0271956 -0.0710456 196 49 45
-0.517587 0.0291565 -0.0711597 190 40 45
-0.518665 0.0312991 -0.0724511 183 44 45
-0.51918 0.0333638 -0.0731578 172 41 37
-0.520843 0.0356346 -0.0750621 160 41 38
-0.52369 0.0381397 -0.0782048 163 42 23
-0.523636 0.0401463 -0.0783215 164 42 19
-0.525348 0.0424917 -0.0802825 160 37 22
-0.531543 0.00267144 -0.0861742 240 54 57
-0.529046 0.00452995 -0.0837439 234 60 57
-0.527184 0.00640947 -0.0819741 226 52 50
-0.525937 0.00831997 -0.0808442 223 51 49
-0.525289 0.0102717 -0.0803408 221 47 52
-0.524055 0.0121601 -0.0792233 214 50 51
-0.521089 0.0138555 -0.0762917 216 42 45
-0.519314 0.0156467 -0.0746042 217 37 38
-0.518123 0.0174856 -0.0735276 204 39 47
-0.518071 0.0194508 -0.0736423 202 35 45
-0.517452 0.0213445 -0.0731641 205 33 41
-0.516836 0.0232327 -0.0726877 197 38 45
-0.516784 0.0251947 -0.0728023 194 40 33
-0.516731 0.027158 -0.0729169 188 41 28
-0.516678 0.0291225 -0.0730317 183 42 35
-0.517189 0.0311784 -0.0737385 177 38 40
-0.517701 0.033243 -0.0744479 165 36 27
-0.519355 0.0355132 -0.0763597 150 37 35
-0.522188 0.0380173 -0.0795146 151 33 33
-0.522134 0.0400241 -0.0796318 153 38 22
-0.523249 0.0422563 -0.080981 155 34 18
-0.5294 0.00250328 -0.0868675 237 60 57
-0.526923 0.0043597 -0.0844369 234 55 56
-0.525076 0.00623681 -0.082667 227 53 59
-0.524428 0.00819478 -0.0821598 217 50 48
-0.523195 0.0100931 -0.0810338 214 50 51
-0.521388 0.0119221 -0.0793022 212 42 47
-0.519601 0.0137324 -0.0775894 206 43 48
-0.517266 0.0154619 -0.0752963 204 40 46
-0.516648 0.0173638 -0.0748145 190 36 52
-0.516595 0.0193292 -0.0749297 184 37 54
-0.516541 0.0212958 -0.075045 192 32 46
-0.515925 0.0231876 -0.0745647 193 37 38
-0.515312 0.0250739 -0.0740863 185 35 37
-0.515258 0.0270372 -0.0742014 180 35 37
-0.515766 0.0290883 -0.0749106 177 39 33
-0.515713 0.0310577 -0.075026 171 42 37
-0.516786 0.0332163 -0.0763369 157 38 36
-0.518438 0.0354907 -0.0782629 156 35 25
-0.520686 0.037895 -0.0808246 151 38 29
-0.521796 0.0401182 -0.0821786 148 36 23
-0.521741 0.0421337 -0.0822967 149 34 21
-0.528534 0.000381418 -0.0887276 230 60 49
-0.52787 0.00237582 -0.0882016 232 52 51
-0.525404 0.00423334 -0.0857616 224 53 54
-0.523565 0.00611125 -0.0839848 217 52 55
-0.52292 0.00806957 -0.0834756 213 49 45
-0.521691 0.0099685 -0.0823452 207 42 43
-0.519892 0.0117982 -0.0806068 204 41 46
-0.518113 0.0136093 -0.0788874 200 41 42
-0.515788 0.0153399 -0.0765853 196 38 32
-0.515734 0.0173077 -0.076701 183 40 48
-0.515681 0.0192767 -0.0768169 189 36 25
-0.515065 0.0211743 -0.0763329 187 43 33
-0.515011 0.0231424 -0.0764487 188 37 35
-0.514397 0.0250322 -0.0759664 176 34 32
-0.514344 0.0269992 -0.0760822 174 36 29
-0.51429 0.0289674 -0.0761979 169 37 23
-0.514796 0.031027 -0.0769125 163 36 26
-0.515304 0.0330953 -0.0776298 158 42 41
-0.518089 0.0355673 -0.0807856 156 38 34
-0.519184 0.0377726 -0.0821348 152 36 35
-0.520287 0.0399955 -0.083494 150 21 24
-0.521399 0.0422359 -0.0848633 144 38 19
-0.527665 -0.00174735 -0.0905941 202 62 55
-0.527002 0.000253625 -0.090064 225 60 53
-0.52634 0.00224838 -0.089536 227 55 50
-0.523885 0.00410695 -0.0870865 223 51 50
-0.522054 0.00598565 -0.0853028 215 42 53
-0.521411 0.00794434 -0.0847916 209 42 46
-0.519606 0.00979077 -0.0830337 200 35 48
-0.517822 0.0116183 -0.0812951 197 29 51
-0.514364 0.0132512 -0.0777584 196 38 46
-0.51431 0.0152178 -0.0778745 193 38 35
-0.514256 0.0171857 -0.0779907 189 37 40
-0.514202 0.0191548 -0.0781069 183 40 27
-0.514147 0.0211252 -0.0782233 177 36 37
-0.513534 0.023021 -0.0777373 175 32 32
-0.51348 0.0249903 -0.0778536 171 33 20
-0.512868 0.0268782 -0.0773693 165 39 31
-0.512814 0.0288466 -0.0774855 163 33 29
-0.513317 0.0309061 -0.0782028 156 39 37
-0.513822 0.0329742 -0.0789228 153 34 45
-0.516592 0.0354452 -0.0820908 154 33 24
-0.518834 0.0378583 -0.0846907 144 32 34
-0.51994 0.0400897 -0.0860648 144 28 23
-0.520468 0.0422257 -0.0868155 139 33 23
-0.526131 -0.00187554 -0.0919328 204 61 55
-0.525469 0.000125778 -0.0914007 224 58 51
-0.52481 0.00212092 -0.0908706 222 51 51
-0.521774 0.00393774 -0.0877728 216 48 53
-0.520542 0.00586005 -0.086621 212 44 54
-0.519319 0.00776954 -0.0854778 209 42 50
-0.517529 0.00961366 -0.0837198 202 37 44
-0.5135 0.0112182 -0.0795366 200 36 37
-0.512886 0.013129 -0.0790474 195 39 32
-0.512274 0.0150341 -0.0785601 191 37 49
-0.51222 0.0169986 -0.0786765 190 39 45
-0.512722 0.0190329 -0.0793972 182 32 34
-0.512111 0.0209313 -0.0789095 175 36 49
-0.512056 0.0228995 -0.0790261 170 35 35
-0.511447 0.02479 -0.07854 164 36 27
-0.511392 0.0267572 -0.0786566 164 32 16
-0.511337 0.0287257 -0.0787732 162 31 21
-0.511283 0.0306955 -0.0788899 155 30 30
-0.511783 0.0327597 -0.0796103 148 28 30
-0.513403 0.0350277 -0.0815518 151 35 26
-0.517326 0.0377354 -0.0860061 141 32 29
-0.518426 0.0399665 -0.0873855 139 26 34
-0.519534 0.0422154 -0.088775 136 27 24
-0.523993 -0.00203581 -0.0926166 212 61 50
-0.523336 -3.78149e-05 -0.0920846 222 51 43
-0.522087 0.00191475 -0.0909063 219 47 44
-0.519671 0.00376914 -0.0884566 211 44 49
-0.517869 0.00564301 -0.0866728 210 39 43
-0.517235 0.00759536 -0.0861618 211 35 35
-0.51489 0.00938515 -0.0837825 202 39 36
-0.511463 0.0110412 -0.0802197 197 32 37
-0.510301 0.0128914 -0.0791268 197 35 34
-0.509695 0.0147902 -0.0786415 199 31 34
-0.50964 0.0167478 -0.0787579 205 39 29
-0.510136 0.0187745 -0.0794767 194 35 30
-0.510081 0.020738 -0.0795934 187 33 35
-0.509476 0.0226279 -0.0791076 175 37 20
-0.509421 0.0245904 -0.0792243 168 37 27
-0.508818 0.0264725 -0.0787401 170 36 11
-0.508763 0.028434 -0.0788567 165 31 12
-0.508708 0.0303968 -0.0789734 164 28 19
-0.508653 0.0323609 -0.0790902 153 27 20
-0.510247 0.0346147 -0.0810189 149 23 21
-0.514109 0.0373025 -0.0854425 137 22 28
-0.516336 0.0397351 -0.0880728 134 27 33
-0.518013 0.0420918 -0.0901012 135 22 19
-0.522461 -0.00216378 -0.0939532 208 55 50
-0.521211 -0.000200818 -0.0927661 218 50 44
-0.519971 0.00174884 -0.091588 213 42 42
-0.516996 0.00355927 -0.0885015 206 37 51
-0.516362 0.00551787 -0.0879865 201 36 48
-0.515731 0.00747053 -0.0874735 204 34 43
-0.51227 0.00915829 -0.083845 211 34 40
-0.508883 0.0108109 -0.0802947 220 39 31
-0.508828 0.0127695 -0.0804116 222 41 40
-0.508224 0.0146688 -0.0799244 219 34 34
-0.508169 0.0166264 -0.0800413 199 42 31
-0.508114 0.0185853 -0.0801581 180 35 37
-0.508058 0.0205454 -0.0802751 177 31 40
-0.507457 0.0224323 -0.0797893 174 32 20
-0.507402 0.0243915 -0.0799062 169 32 30
-0.506803 0.0262707 -0.0794221 164 29 17
-0.506748 0.0282288 -0.079539 158 26 29
-0.506693 0.0301883 -0.0796559 158 30 13
-0.506637 0.0321489 -0.0797729 152 29 23
-0.507125 0.0342061 -0.0804919 144 24 22
-0.510926 0.0368742 -0.0848852 137 27 23
-0.513684 0.0393973 -0.0881265 133 24 28
-0.516492 0.0419683 -0.0914276 129 23 21
-0.55513 0.0633082 -0.135568 171 36 29
-0.554336 0.0654269 -0.134892 136 30 33
-0.520928 -0.00229176 -0.09529 210 56 51
-0.518507 -0.000398123 -0.0927948 212 47 50
-0.517281 0.00154515 -0.0916213 217 40 46
-0.514913 0.00339225 -0.0891807 227 46 45
-0.514284 0.00534768 -0.0886659 229 47 47
-0.511959 0.00715278 -0.0862692 233 54 52
-0.510781 0.00903491 -0.0851431 233 54 57
-0.507958 0.0107426 -0.0821875 230 57 53
-0.507354 0.0126477 -0.0816966 228 53 48
-0.506753 0.0145472 -0.0812075 230 53 44
-0.506697 0.016505 -0.0813248 219 53 47
-0.506642 0.018464 -0.0814421 211 46 50
-0.506043 0.0203535 -0.0809545 198 35 50
-0.505987 0.0223115 -0.0810718 177 28 32
-0.50539 0.0241933 -0.080586 158 28 34
-0.505335 0.0261503 -0.0807032 151 30 34
-0.505279 0.0281086 -0.0808204 150 20 21
-0.505223 0.0300681 -0.0809378 147 16 17
-0.505167 0.0320289 -0.0810552 145 25 31
-0.505111 0.0339909 -0.0811727 142 26 17
-0.507777 0.0364505 -0.0843341 140 23 15
-0.511613 0.0391682 -0.0888091 136 15 21
-0.539581 0.0554895 -0.121116 187 37 27
-0.542903 0.0584624 -0.125049 170 35 20
-0.549819 0.062325 -0.133021 150 32 27
-0.551184 0.064941 -0.134764 132 26 18
-0.519395 -0.0024198 -0.096627 204 59 51
-0.516985 -0.000525098 -0.0941223 223 56 49
-0.515764 0.00141879 -0.0929443 228 52 55
-0.513407 0.00326693 -0.0904944 230 53 50
-0.512212 0.00517809 -0.0893429 228 50 47
-0.510466 0.00702882 -0.0875718 229 49 50
-0.50985 0.0089625 -0.0870651 230 50 51
-0.506482 0.0106204 -0.0834746 227 49 49
-0.505881 0.0125259 -0.0829817 223 46 50
-0.505825 0.014486 -0.0830995 225 54 45
-0.505226 0.0163836 -0.0826085 217 48 46
-0.504629 0.0182757 -0.0821192 218 42 49
-0.504573 0.0202325 -0.0822368 213 50 56
-0.503978 0.0221168 -0.0817492 205 50 55
-0.503922 0.0240727 -0.0818668 189 42 50
-0.503866 0.0260299 -0.0819844 160 37 32
-0.503809 0.0279883 -0.0821021 144 19 30
-0.503753 0.0299479 -0.0822198 142 24 19
-0.503697 0.0319088 -0.0823377 147 21 12
-0.503641 0.033871 -0.0824556 139 27 16
-0.505203 0.0361305 -0.0844003 133 22 23
-0.510109 0.0390458 -0.090121 126 19 32
-0.537333 0.0530141 -0.121665 160 34 25
-0.537936 0.0553566 -0.12255 166 35 21
-0.539212 0.0578635 -0.1242 158 27 7
-0.54186 0.0607127 -0.127404 142 11 14
-0.545945 0.0639473 -0.132242 107 19 19
-0.517862 -0.00254783 -0.0979642 205 65 51
-0.515462 -0.000652064 -0.09545 227 54 45
-0.513671 0.00125462 -0.093619 216 50 51
-0.511333 0.00310072 -0.0911691 217 47 44
-0.510148 0.0050091 -0.0900176 212 45 39
-0.508972 0.00690484 -0.0888746 212 42 47
-0.508358 0.00883885 -0.088366 214 46 55
-0.506096 0.0106052 -0.0859941 212 51 44
-0.504949 0.0124607 -0.0848802 203 52 48
-0.504892 0.0144245 -0.0849986 206 47 40
-0.504294 0.0163257 -0.0845036 202 42 47
-0.503697 0.0182214 -0.0840105 211 40 40
-0.503102 0.0201115 -0.0835192 214 46 50
-0.503046 0.0220698 -0.0836373 210 44 48
-0.502453 0.0239522 -0.0831478 201 54 51
-0.502397 0.0259094 -0.0832658 189 47 49
-0.50234 0.0278679 -0.0833839 171 35 24
-0.502283 0.0298277 -0.0835021 144 16 18
-0.502226 0.0317887 -0.0836203 138 10 20
-0.50217 0.033751 -0.0837387 139 17 22
-0.503724 0.0360099 -0.0856907 132 17 26
-0.536419 0.0508273 -0.12372 123 10 28
-0.535692 0.0528813 -0.123096 140 11 22
-0.537625 0.055521 -0.125507 148 16 23
-0.538904 0.0580388 -0.127175 144 10 16
-0.540875 0.0607394 -0.129636 130 9 3
-0.542181 0.0633068 -0.131338 91 10 3
-0.516328 -0.00267588 -0.0993017 202 61 53
-0.51394 -0.00077905 -0.0967779 206 54 49
-0.510452 0.00101672 -0.0930015 202 53 51
-0.509829 0.00297558 -0.0924808 207 39 39
-0.508649 0.00488453 -0.091325 203 50 33
-0.508034 0.00682812 -0.0908104 189 43 44
-0.50742 0.00876593 -0.0902977 187 44 53
-0.504615 0.0104825 -0.0872862 191 42 40
-0.504014 0.0123953 -0.0867856 188 39 41
-0.503957 0.0143627 -0.0869047 199 41 32
-0.503358 0.0162676 -0.0864058 198 41 42
-0.503301 0.018234 -0.0865248 192 45 47
-0.502704 0.020131 -0.0860277 197 41 48
-0.50211 0.0220225 -0.0855324 195 40 44
-0.501517 0.0239085 -0.085039 195 39 40
-0.500927 0.025789 -0.0845474 186 46 51
-0.50087 0.0277476 -0.0846659 180 39 36
-0.500813 0.0297075 -0.0847845 168 30 20
-0.500756 0.0316686 -0.0849032 140 17 15
-0.500698 0.033631 -0.085022 132 6 23
-0.502782 0.0359884 -0.0875993 127 21 18
-0.536102 0.0509733 -0.126681 133 15 18
-0.536037 0.0531797 -0.126814 134 12 10
-0.53664 0.0555369 -0.127716 137 8 13
-0.537918 0.0580599 -0.129397 127 4 20
-0.539206 0.0606048 -0.131092 94 6 11
-0.513053 -0.00289518 -0.0986436 187 53 52
-0.510701 -0.00100713 -0.0961392 177 48 52
-0.508945 0.00089122 -0.0943154 175 36 44
-0.508325 0.00285043 -0.0937927 169 39 40
-0.507707 0.0048037 -0.0932721 169 36 27
-0.506537 0.0067039 -0.092116 163 37 19
-0.506478 0.0086927 -0.0922367 163 37 25
-0.504221 0.0104667 -0.0898291 163 35 34
-0.503075 0.0123297 -0.0886981 171 36 25
-0.503017 0.0143008 -0.0888178 180 40 43
-0.502419 0.0162093 -0.088315 181 38 34
-0.502901 0.0182467 -0.0890575 176 36 36
-0.502303 0.0201506 -0.0885544 181 46 31
-0.501707 0.022049 -0.0880532 177 40 39
-0.500578 0.0238646 -0.0869372 177 40 43
-0.499988 0.0257487 -0.0864417 167 39 53
-0.49993 0.0277109 -0.0865609 172 38 31
-0.499342 0.0295872 -0.0860672 165 40 37
-0.499285 0.0315485 -0.0861863 150 36 36
-0.500822 0.0337945 -0.0881523 135 9 13
-0.502377 0.0360662 -0.0901396 126 11 9
-0.508382 0.039211 -0.0972865 121 11 22
-0.534451 0.0508396 -0.128121 143 38 24
-0.534386 0.0530461 -0.128255 142 22 4
-0.535652 0.0555527 -0.129935 126 6 13
-0.536256 0.0579257 -0.130847 85 11 16
-0.515663 -0.00485839 -0.104558 211 45 46
-0.513261 -0.00293204 -0.101977 190 49 44
-0.509754 -0.00110012 -0.0981158 165 44 26
-0.508562 0.000839132 -0.0969291 147 40 28
-0.507379 0.00276543 -0.0957513 130 36 36
-0.506762 0.00472256 -0.0952266 123 33 34
-0.506146 0.00667382 -0.0947038 128 23 27
-0.504981 0.00856857 -0.0935429 134 25 28
-0.503824 0.0104508 -0.0923906 140 27 15
-0.502675 0.0123206 -0.0912467 143 33 20
-0.502616 0.014299 -0.0913673 145 29 40
-0.502016 0.0162145 -0.0908585 151 34 42
-0.501957 0.0181918 -0.090979 157 39 33
-0.501359 0.0200994 -0.090472 161 40 34
-0.5013 0.0220756 -0.0905924 165 35 35
-0.500169 0.0238978 -0.0894637 162 33 34
-0.499577 0.0257887 -0.0889623 159 35 41
-0.499518 0.0277581 -0.0890824 152 39 47
-0.49946 0.0297287 -0.0892024 153 34 43
-0.499401 0.0317007 -0.0893226 153 32 31
-0.500947 0.0339598 -0.0913167 144 25 17
-0.503602 0.0364466 -0.0946072 127 15 18
-0.506863 0.0390874 -0.0986112 123 15 13
-0.5227 0.0442679 -0.117327 124 14 20
-0.527671 0.0474354 -0.123347 140 27 23
-0.528889 0.0498776 -0.124982 149 28 27
-0.532735 0.0529124 -0.129695 137 35 27
-0.533993 0.0554187 -0.131382 90 8 17
-0.521388 -0.00675473 -0.114175 210 53 45
-0.515297 -0.004934 -0.107279 207 51 45
-0.512887 -0.00299976 -0.104668 199 45 39
-0.511089 -0.00105935 -0.102767 171 44 45
-0.508176 0.00078664 -0.0995625 145 26 24
-0.50699 0.00272035 -0.098371 129 31 29
-0.505812 0.00464113 -0.0971884 118 52 54
-0.505197 0.0065962 -0.0966616 112 50 54
-0.504032 0.00849481 -0.0954919 112 41 42
-0.503423 0.0104347 -0.0949711 114 30 18
-0.502271 0.0123115 -0.0938141 126 34 14
-0.502757 0.0143581 -0.094574 125 35 32
-0.502152 0.0162841 -0.094057 137 31 14
-0.502638 0.0183404 -0.0948175 134 29 21
-0.502033 0.0202617 -0.0943002 141 20 22
-0.501974 0.0222524 -0.094422 140 31 30
-0.501372 0.0241657 -0.0939065 139 28 29
-0.499697 0.0259101 -0.0921296 144 30 31
-0.499638 0.0278903 -0.0922507 148 33 23
-0.499578 0.0298718 -0.0923719 149 38 19
-0.499519 0.0318544 -0.0924931 147 26 22
-0.50216 0.0343209 -0.0957947 140 39 22
-0.505405 0.036937 -0.0998123 124 22 24
-0.509865 0.0398325 -0.105267 118 19 26
-0.519873 0.0438937 -0.117273 126 5 23
-0.521655 0.0464005 -0.119581 137 26 18
-0.525346 0.0493394 -0.124148 143 21 20
-0.531083 0.0527787 -0.131136 141 29 23
-0.531674 0.0551354 -0.132048 101 18 24
-0.534189 -0.0172623 -0.13139 214 48 52
-0.532133 -0.0151058 -0.129191 215 50 45
-0.531409 -0.012949 -0.128552 221 49 43
-0.530688 -0.0107995 -0.127916 219 51 51
-0.526746 -0.0087604 -0.123497 209 50 54
-0.522273 -0.00679175 -0.11845 210 44 30
-0.516716 -0.00492919 -0.112124 204 41 32
-0.514273 -0.00297653 -0.109452 189 37 24
-0.511286 -0.00108593 -0.106137 169 48 33
-0.509495 0.000845166 -0.104228 156 39 32
-0.507725 0.00275599 -0.10234 145 14 23
-0.505416 0.00460306 -0.0998141 136 24 20
-0.504244 0.0065183 -0.0986267 125 40 27
-0.50363 0.00847131 -0.0980977 125 50 45
-0.50302 0.0104185 -0.0975707 126 48 40
-0.502411 0.0123598 -0.0970457 128 54 37
-0.502351 0.0143564 -0.0971682 124 49 49
-0.503389 0.0164846 -0.0985894 128 49 32
-0.503328 0.0184911 -0.0987125 122 44 28
-0.503268 0.0204989 -0.0988357 130 27 17
-0.502109 0.0223558 -0.0976591 136 24 5
-0.501503 0.0242795 -0.0971353 123 25 23
-0.500899 0.0261974 -0.0966136 124 17 23
-0.500297 0.0281097 -0.0960938 133 18 20
-0.500237 0.0301057 -0.0962163 135 23 14
-0.500718 0.0321962 -0.0969817 132 30 15
-0.503394 0.0346886 -0.100355 121 26 27
-0.508385 0.0376499 -0.106486 120 12 20
-0.512958 0.0406003 -0.112126 120 10 13
-0.51828 0.0437642 -0.118662 132 5 6
-0.519437 0.0461437 -0.120248 135 14 5
-0.523095 0.0490739 -0.124814 142 20 13
-0.528779 0.0525017 -0.1318 142 21 22
-0.529364 0.0548533 -0.132712 130 24 17
-0.538011 -0.0195881 -0.139075 212 38 26
-0.534546 -0.0173906 -0.135197 222 34 36
-0.532474 -0.0152201 -0.132962 222 48 38
-0.529773 -0.0130865 -0.129979 225 47 40
-0.525196 -0.0110335 -0.124773 217 55 55
-0.523236 -0.00895595 -0.122661 207 51 49
-0.521299 -0.00690133 -0.120573 201 43 42
-0.518163 -0.00492432 -0.117062 190 31 35
-0.515087 -0.00298381 -0.113618 206 38 36
-0.512655 -0.00104444 -0.110935 195 43 36
-0.511422 0.000942626 -0.109672 167 36 16
-0.509045 0.00283327 -0.107049 147 27 20
-0.506139 0.00465279 -0.103794 146 23 12
-0.504397 0.00653461 -0.10192 133 23 28
-0.503226 0.00844765 -0.100723 135 17 21
-0.502613 0.0104021 -0.10019 132 12 15
-0.502002 0.0123507 -0.0996583 131 19 13
-0.501941 0.0143548 -0.0997816 125 15 26
-0.50243 0.0164254 -0.10056 125 20 21
-0.502369 0.0184357 -0.100684 121 14 12
-0.502307 0.0204474 -0.100808 117 21 9
-0.502246 0.0224603 -0.100932 125 10 11
-0.501636 0.0243944 -0.1004 116 11 32
-0.501028 0.0263229 -0.0998697 114 18 20
-0.500422 0.0282455 -0.0993416 121 20 17
-0.500361 0.0302525 -0.0994652 122 18 20
-0.50194 0.0325443 -0.101553 117 11 26
-0.504651 0.0350631 -0.105001 117 2 28
-0.509133 0.0379511 -0.110576 125 11 13
-0.513158 0.0408142 -0.11561 119 13 4
-0.517293 0.0437562 -0.12078 123 0 4
-0.517837 0.0460139 -0.121643 131 12 11
-0.520853 0.0488095 -0.125477 136 15 12
-0.526484 0.0522258 -0.132462 137 23 19
-0.527063 0.0545723 -0.133374 142 25 18
-0.527644 0.0569296 -0.13429 141 35 16
-0.52888 0.0594552 -0.135997 152 31 21
-0.529468 0.0618394 -0.136924 172 34 33
-0.539923 -0.0242081 -0.144371 184 45 38
-0.538466 -0.0219608 -0.142855 185 38 31
-0.538397 -0.019733 -0.142992 187 37 26
-0.534231 -0.0175238 -0.138246 190 41 40
-0.531487 -0.0153512 -0.13519 205 39 47
-0.529442 -0.0132002 -0.132965 209 47 46
-0.527421 -0.0110736 -0.130766 205 47 48
-0.523516 -0.00903109 -0.126314 189 45 46
-0.521565 -0.00696382 -0.124193 180 37 50
-0.519638 -0.0049194 -0.122097 208 27 25
-0.516517 -0.00296006 -0.118571 214 52 47
-0.515849 -0.000897384 -0.117978 213 48 51
-0.513392 0.0010423 -0.115241 190 32 37
-0.510973 0.00295383 -0.112547 149 35 31
-0.50859 0.0048379 -0.109893 142 38 32
-0.504552 0.00655108 -0.10525 146 35 29
-0.503373 0.0084748 -0.104034 147 25 17
-0.502756 0.0104402 -0.103492 140 21 22
-0.502694 0.0124579 -0.103617 135 25 17
-0.502632 0.0144769 -0.103742 133 19 25
-0.50257 0.0164972 -0.103867 128 14 24
-0.50362 0.0186585 -0.105329 127 13 7
-0.503558 0.0206889 -0.105455 123 10 17
-0.502939 0.0226431 -0.10491 128 13 13
-0.502322 0.0245914 -0.104367 120 12 30
-0.501708 0.0265337 -0.103826 121 16 24
-0.501096 0.0284703 -0.103287 122 12 20
-0.501034 0.0304922 -0.103412 127 5 13
-0.503183 0.0328987 -0.106209 120 8 12
-0.50707 0.0356497 -0.111111 118 4 19
-0.50931 0.0381482 -0.114025 124 20 14
-0.512766 0.0409153 -0.118415 127 15 22
-0.515697 0.0436264 -0.122173 118 5 9
-0.516845 0.0460103 -0.123776 126 18 3
-0.519236 0.0486784 -0.126887 135 9 11
-0.522294 0.0515295 -0.130811 140 23 19
-0.524771 0.0542923 -0.134034 144 32 17
-0.525346 0.0566445 -0.13495 151 36 19
-0.525923 0.0590075 -0.135869 167 36 20
-0.527152 0.061543 -0.137583 179 35 19
-0.527083 0.0637662 -0.13772 182 38 16
-0.527015 0.0659908 -0.137858 172 36 26
-0.526947 0.0682169 -0.137995 161 41 30
-0.538927 -0.0243619 -0.146681 155 42 30
-0.53747 -0.0221093 -0.145153 162 36 18
-0.536711 -0.0198752 -0.144463 162 33 15
-0.532565 -0.0176641 -0.139699 163 32 24
-0.530496 -0.0154829 -0.137428 169 29 43
-0.529108 -0.0133149 -0.135974 181 32 28
-0.527081 -0.011179 -0.133749 185 34 19
-0.525077 -0.00906723 -0.13155 175 39 20
-0.521207 -0.00705093 -0.127098 184 32 32
-0.519893 -0.00497013 -0.125726 213 48 44
-0.51859 -0.00290423 -0.124364 219 41 37
-0.516686 -0.000888553 -0.122275 211 47 48
-0.514204 0.00106613 -0.119485 190 40 40
-0.512351 0.00303463 -0.117453 169 33 19
-0.511106 0.00502797 -0.116155 157 34 16
-0.50987 0.00700748 -0.114866 153 38 28
-0.508644 0.00897331 -0.113587 155 37 19
-0.508003 0.0109824 -0.113015 150 29 20
-0.507364 0.0129853 -0.112445 148 27 9
-0.506156 0.0149179 -0.111185 145 22 15
-0.505524 0.0169047 -0.110622 140 23 8
-0.504894 0.0188854 -0.110062 134 15 1
-0.504831 0.020935 -0.110189 129 13 9
-0.504767 0.0229858 -0.110316 125 21 15
-0.50414 0.0249554 -0.109757 131 14 13
-0.502955 0.0268332 -0.108519 127 13 12
-0.502892 0.0288765 -0.108646 119 1 25
-0.50395 0.0311083 -0.110139 124 19 19
-0.505583 0.0334568 -0.112335 117 13 13
-0.507811 0.0359374 -0.115259 114 14 27
-0.510073 0.0384572 -0.118227 129 18 10
-0.512966 0.041133 -0.12197 137 7 14
-0.514703 0.0436181 -0.124303 125 2 14
-0.515849 0.0460066 -0.125918 124 4 0
-0.517619 0.0485474 -0.128297 125 17 23
-0.51941 0.0511196 -0.130705 133 20 26
-0.520594 0.0535798 -0.132371 141 17 19
-0.52242 0.0562105 -0.134827 156 21 6
-0.523627 0.0587184 -0.136526 165 27 15
-0.5242 0.061087 -0.13745 166 36 11
-0.524132 0.0633015 -0.137587 165 34 8
-0.524063 0.0655173 -0.137724 158 32 19
-0.523995 0.0677346 -0.137862 149 28 21
-0.523926 0.0699533 -0.137999 111 22 25
-0.535781 -0.0222518 -0.146626 128 23 21
-0.535025 -0.0200174 -0.145933 137 11 17
-0.530899 -0.0178044 -0.141152 141 22 22
-0.52884 -0.0156222 -0.138872 151 19 16
-0.527458 -0.0134536 -0.137414 154 20 24
-0.526087 -0.011301 -0.135967 161 29 11
-0.523445 -0.00920398 -0.132973 164 36 12
-0.520846 -0.00713872 -0.130027 194 56 42
-0.518906 -0.00507693 -0.127881 211 46 51
-0.517603 -0.00300646 -0.126509 209 45 51
-0.516923 -0.000915258 -0.125892 196 34 40
-0.515028 0.00109031 -0.123796 179 31 14
-0.513156 0.00307398 -0.121724 163 32 22
-0.511897 0.00508263 -0.120399 153 30 17
-0.511239 0.00712751 -0.119805 154 28 14
-0.510584 0.00916594 -0.119214 145 39 30
-0.510519 0.011256 -0.119344 156 29 18
-0.50928 0.0132234 -0.118039 156 32 17
-0.507472 0.0151121 -0.116035 134 30 16
-0.506831 0.0171175 -0.115458 132 30 16
-0.506192 0.0191166 -0.114884 128 24 17
-0.504986 0.0210338 -0.113613 127 21 21
-0.504354 0.023017 -0.113045 125 22 28
-0.50429 0.025077 -0.113173 126 12 27
-0.503098 0.026965 -0.111916 119 25 19
-0.503034 0.0290199 -0.112044 117 14 11
-0.504098 0.0312649 -0.113558 116 13 23
-0.505169 0.0335282 -0.115084 113 13 19
-0.507982 0.0361239 -0.118754 116 10 18
-0.509669 0.038549 -0.121042 127 17 14
-0.511971 0.0411197 -0.12409 138 27 18
-0.513705 0.0436096 -0.126441 136 25 13
-0.514242 0.0458762 -0.12732 126 2 6
-0.515391 0.0482845 -0.128953 124 5 14
-0.517165 0.0508502 -0.13136 134 8 8
-0.517716 0.053162 -0.132259 144 18 3
-0.518892 0.0556318 -0.133932 150 20 9
-0.520707 0.0582762 -0.136398 150 22 13
-0.521272 0.0606347 -0.137318 146 36 17
-0.521203 0.0628404 -0.137455 149 25 10
-0.521769 0.0652156 -0.138379 145 11 16
-0.5217 0.0674286 -0.138517 134 12 24
-0.522269 0.0698205 -0.139445 95 15 19
-0.519226 -0.00727428 -0.13144 198 59 54
-0.517914 -0.00518418 -0.130045 208 44 46
-0.516612 -0.00310911 -0.128662 194 37 42
-0.51532 -0.00104888 -0.12729 176 36 30
-0.515254 0.00107529 -0.127422 162 29 28
-0.512767 0.00302769 -0.124577 156 14 36
-0.511505 0.00504439 -0.123237 147 32 36
-0.510845 0.00709738 -0.122636 137 14 11
-0.510779 0.00919827 -0.122767 134 25 27
-0.510713 0.0113005 -0.122898 144 22 31
-0.509466 0.0132792 -0.121572 143 38 23
-0.507646 0.0151785 -0.119538 123 32 24
-0.507 0.0171954 -0.118951 129 28 19
-0.505781 0.0191332 -0.117656 125 16 18
-0.504572 0.0210576 -0.11637 120 16 31
-0.503938 0.0230484 -0.115795 116 12 32
-0.503873 0.0251162 -0.115924 111 16 42
-0.503242 0.0270982 -0.115352 105 0 30
-0.503177 0.0291649 -0.115481 120 5 13
-0.503678 0.0313279 -0.116312 121 5 14
-0.504752 0.0336001 -0.117854 122 10 11
-0.508154 0.0363126 -0.12229 124 10 9
-0.509262 0.0386416 -0.123879 127 13 19
-0.510972 0.0411063 -0.12622 134 21 10
-0.512101 0.0434793 -0.12784 140 23 2
-0.512635 0.0457458 -0.128721 123 6 0
-0.513777 0.0481537 -0.130361 122 0 0
-0.514928 0.0505817 -0.132014 134 2 1
-0.515473 0.0528886 -0.132912 138 5 9
-0.51602 0.055206 -0.133815 139 10 21
-0.517188 0.0576854 -0.135494 142 6 15
-0.518993 0.0603436 -0.13797 139 6 18
-0.519553 0.0627078 -0.138894 136 14 17
-0.519484 0.0649151 -0.139032 126 11 23
-0.520047 0.0672959 -0.139959 114 8 21
-0.517606 -0.00740987 -0.132852 198 46 51
-0.516918 -0.00529187 -0.132218 190 46 37
-0.515617 -0.00321218 -0.130824 179 33 21
-0.514326 -0.0011474 -0.129441 168 31 18
-0.513651 0.000941763 -0.12882 156 27 16
-0.511775 0.00293812 -0.126708 154 21 15
-0.511109 0.00500587 -0.126097 149 15 18
-0.510447 0.00706696 -0.125489 130 0 7
-0.51038 0.00917612 -0.125621 148 3 0
-0.50972 0.0112279 -0.125015 153 34 22
-0.509654 0.0133357 -0.125147 142 40 19
-0.508996 0.0153782 -0.124543 125 28 22
-0.507171 0.0172742 -0.122484 123 19 22
-0.505367 0.0191498 -0.120449 119 26 29
-0.504154 0.0210816 -0.119148 121 19 22
-0.503518 0.0230799 -0.118566 120 13 13
-0.503452 0.0251558 -0.118696 124 13 12
-0.502819 0.0271453 -0.118117 106 0 24
-0.502753 0.0292199 -0.118247 122 11 18
-0.503255 0.0313913 -0.119087 127 11 12
-0.503759 0.0335723 -0.11993 128 9 5
-0.506573 0.0361836 -0.123669 120 14 9
-0.508261 0.0386234 -0.125999 123 11 15
-0.509969 0.0410929 -0.128357 132 15 9
-0.511095 0.0434706 -0.129989 140 27 9
-0.511028 0.0456154 -0.130124 124 14 1
-0.512163 0.0480228 -0.131769 116 1 0
-0.512699 0.0503144 -0.132664 121 8 10
-0.513238 0.0526163 -0.133563 123 6 21
-0.513779 0.0549287 -0.134466 127 11 21
-0.514936 0.0574023 -0.136145 130 17 15
-0.515484 0.0597406 -0.137058 130 11 13
-0.515414 0.0619292 -0.137195 126 19 19
-0.516585 0.0644495 -0.138896 117 12 13
-0.517853 -0.00747637 -0.136596 195 40 46
-0.515918 -0.00540001 -0.1344 180 43 42
-0.514618 -0.00331567 -0.132995 173 33 25
-0.513328 -0.00124633 -0.131601 160 22 24
-0.512048 0.000808247 -0.130218 147 22 30
-0.51018 0.00280547 -0.128098 150 21 17
-0.510113 0.0049202 -0.128231 146 13 12
-0.50945 0.00698561 -0.127618 123 5 9
-0.509383 0.00909894 -0.127751 144 10 11
-0.509316 0.0112137 -0.127884 158 29 26
-0.508656 0.0132669 -0.127273 150 20 6
-0.507999 0.0153136 -0.126664 139 16 3
-0.507344 0.0173538 -0.126058 129 12 26
-0.505528 0.0192399 -0.123991 127 15 14
-0.503733 0.0211058 -0.121947 124 16 24
-0.502525 0.0230316 -0.120641 127 15 16
-0.501892 0.0250277 -0.120057 129 4 17
-0.501826 0.027105 -0.120188 107 3 24
-0.501759 0.0291836 -0.120318 120 13 15
-0.50226 0.0313592 -0.121165 130 7 10
-0.502762 0.0335444 -0.122014 131 11 9
-0.506154 0.0362669 -0.126515 124 4 11
-0.507257 0.038605 -0.128128 125 7 12
-0.508368 0.0409627 -0.129753 131 17 24
-0.509488 0.04334 -0.131391 132 13 23
-0.50942 0.0454849 -0.131526 119 15 13
-0.510548 0.0478919 -0.133177 106 1 1
-0.511081 0.0501834 -0.134076 102 6 9
-0.511012 0.0523451 -0.134212 108 4 23
-0.512154 0.0547975 -0.135884 114 12 20
-0.512693 0.0571202 -0.136793 121 16 2
-0.512623 0.0592989 -0.13693 117 18 4
-0.512554 0.0614789 -0.137067 88 13 22
-0.516847 -0.00758986 -0.138804 196 39 48
-0.515533 -0.00548156 -0.137371 178 41 36
-0.513614 -0.0034196 -0.135175 166 32 23
-0.511719 -0.00138051 -0.133005 152 19 24
-0.510445 0.000674674 -0.131617 144 23 26
-0.50918 0.00271522 -0.13024 142 13 22
-0.508518 0.00478767 -0.129622 134 10 20
-0.50845 0.00690388 -0.129755 124 8 5
-0.508382 0.00902146 -0.129889 151 17 15
-0.508314 0.0111404 -0.130023 163 34 32
-0.508246 0.0132607 -0.130156 158 21 13
-0.507586 0.0153155 -0.12954 143 15 6
-0.506343 0.0172932 -0.128183 137 17 16
-0.505691 0.019331 -0.127574 135 16 13
-0.502735 0.0210532 -0.12404 135 16 12
-0.501529 0.0229831 -0.122724 136 17 7
-0.500895 0.0249832 -0.122136 136 7 14
-0.500828 0.0270645 -0.122267 117 8 12
-0.500762 0.0291472 -0.122398 121 4 15
-0.501261 0.031327 -0.123251 133 9 19
-0.502332 0.0336169 -0.124833 131 9 16
-0.505148 0.0362439 -0.128641 130 11 15
-0.505663 0.0384752 -0.129518 127 3 10
-0.506767 0.0408324 -0.131149 130 17 14
-0.507881 0.0432094 -0.132793 133 20 19
-0.508406 0.0454801 -0.133688 126 16 12
-0.508933 0.0477611 -0.134586 89 1 1
-0.509463 0.0500524 -0.135488 73 0 4
-0.509393 0.0522142 -0.135624 84 3 8
-0.509925 0.0545215 -0.13653 85 5 9
-0.510458 0.0568393 -0.137439 82 5 4
-0.510993 0.0591676 -0.138352 62 1 2
-0.516533 -0.00985107 -0.141678 212 53 47
-0.515214 -0.0077266 -0.140228 194 48 47
-0.514523 -0.00559076 -0.139576 176 36 30
-0.511996 -0.00355472 -0.136586 156 36 17
-0.510109 -0.00151474 -0.134408 143 21 26
-0.508841 0.000541083 -0.133015 138 20 34
-0.508176 0.00262462 -0.13239 136 11 17
-0.507514 0.00470137 -0.131767 131 11 14
-0.507445 0.00682184 -0.131902 124 2 0
-0.507377 0.00894366 -0.132036 152 18 16
-0.507901 0.0111257 -0.132928 165 36 38
-0.507239 0.0131914 -0.132305 159 33 17
-0.50658 0.0152504 -0.131684 145 27 10
-0.505923 0.0173028 -0.131065 138 24 26
-0.504685 0.0192743 -0.129702 138 15 17
-0.501733 0.0210005 -0.126142 142 6 10
-0.501096 0.0230146 -0.125544 138 19 19
-0.499895 0.0249384 -0.124223 139 10 3
-0.499827 0.0270238 -0.124355 123 10 10
-0.500325 0.0292025 -0.125212 123 5 16
-0.500825 0.0313908 -0.126074 129 9 16
-0.501326 0.0335889 -0.126938 128 17 12
-0.504137 0.0362209 -0.130775 128 13 19
-0.504651 0.0384565 -0.131658 126 10 19
-0.505753 0.0408184 -0.133301 131 12 14
-0.506273 0.0430788 -0.134196 136 27 9
-0.506795 0.0453494 -0.135093 126 19 12
-0.507318 0.0476302 -0.135995 68 1 2
-0.516847 -0.0121152 -0.145382 218 46 50
-0.515518 -0.00997017 -0.143909 223 51 49
-0.51358 -0.00786335 -0.141653 198 35 28
-0.512892 -0.00572712 -0.140998 165 35 28
-0.510378 -0.00368989 -0.137998 154 25 24
-0.5085 -0.001649 -0.135812 142 20 29
-0.507833 0.000445707 -0.135179 130 13 28
-0.506575 0.00249138 -0.133787 130 11 12
-0.506506 0.00461475 -0.133922 122 4 5
-0.506437 0.00673947 -0.134056 108 5 4
-0.506367 0.00886554 -0.134191 139 11 10
-0.506298 0.010993 -0.134326 164 43 25
-0.506229 0.0131218 -0.134462 161 34 21
-0.506159 0.0152519 -0.134597 148 22 17
-0.504913 0.0172417 -0.133212 143 24 13
-0.504259 0.0192917 -0.132592 141 29 14
-0.502448 0.0211792 -0.130476 145 14 5
-0.50009 0.0229657 -0.127649 143 14 12
-0.499455 0.0249775 -0.127048 137 15 20
-0.499387 0.027071 -0.127181 122 11 24
-0.499885 0.0292582 -0.128048 124 0 2
-0.499816 0.0313584 -0.128181 135 7 7
-0.502035 0.0338653 -0.131281 136 9 4
-0.503123 0.0361977 -0.132917 138 16 8
-0.503635 0.0384377 -0.133807 132 11 13
-0.504735 0.0408042 -0.135462 129 12 12
-0.505253 0.0430691 -0.136363 132 27 14
-0.505183 0.0452186 -0.136499 130 19 9
-0.515341 -0.0166135 -0.146543 206 45 47
-0.515269 -0.0144342 -0.146682 224 37 45
-0.515198 -0.0122536 -0.146821 211 50 46
-0.513875 -0.0101079 -0.145342 206 42 35
-0.512563 -0.00797791 -0.143876 190 38 32
-0.511261 -0.00586351 -0.142421 172 33 35
-0.508759 -0.00382508 -0.13941 155 21 29
-0.50689 -0.00178328 -0.137216 144 21 22
-0.506226 0.00031184 -0.136581 133 12 20
-0.505563 0.0024001 -0.135949 127 14 11
-0.504904 0.0044816 -0.135319 107 7 10
-0.504834 0.00660644 -0.135454 65 2 9
-0.505354 0.00878706 -0.136355 97 6 17
-0.505284 0.0109188 -0.136491 155 46 39
-0.505214 0.0130518 -0.136627 165 38 22
-0.504555 0.0151194 -0.135996 159 31 6
-0.503898 0.0171803 -0.135368 152 26 10
-0.503244 0.0192345 -0.134742 149 29 11
-0.502013 0.021204 -0.133363 137 15 18
-0.500792 0.0231596 -0.131995 139 14 20
-0.499011 0.0250169 -0.129896 137 15 24
-0.498942 0.0271185 -0.13003 122 12 17
-0.499441 0.0293143 -0.130906 118 3 1
-0.500514 0.0316175 -0.132534 125 4 12
-0.501019 0.0338375 -0.13342 134 15 11
-0.502104 0.0361744 -0.135068 138 7 17
-0.502614 0.0384188 -0.135964 130 11 19
-0.503127 0.0406734 -0.136864 135 7 5
-0.503642 0.0429382 -0.137768 137 30 20
-0.503571 0.0450878 -0.137905 143 25 8
-0.514391 -0.0189297 -0.148657 208 47 41
-0.514319 -0.0167473 -0.148797 213 47 41
-0.514247 -0.0145636 -0.148936 199 41 48
-0.514174 -0.0123784 -0.149076 192 35 28
-0.513476 -0.0102099 -0.148399 187 33 25
-0.51216 -0.00807082 -0.146915 177 34 27
-0.510854 -0.00594749 -0.145443 161 31 36
-0.50714 -0.00396029 -0.140822 150 18 37
-0.505874 -0.00188372 -0.139397 150 18 24
-0.504618 0.000177923 -0.137983 135 15 11
-0.503959 0.00226659 -0.137348 115 14 16
-0.503888 0.00439433 -0.137484 80 9 10
-0.503606 0.012919 -0.138029 168 36 18
-0.50295 0.0149869 -0.137396 160 34 20
-0.50288 0.0171187 -0.137532 147 26 19
-0.502226 0.0191771 -0.136902 144 18 9
-0.500419 0.0210729 -0.134754 133 6 22
-0.499775 0.0231105 -0.134133 136 19 24
-0.499133 0.0251417 -0.133516 136 23 20
-0.499064 0.0272556 -0.133651 109 18 17
-0.499565 0.0294645 -0.134539 114 1 4
-0.499495 0.0315852 -0.134675 125 7 17
-0.499998 0.0338095 -0.135568 136 12 12
-0.500503 0.0360438 -0.136464 137 13 15
-0.50101 0.0382882 -0.137364 134 9 21
-0.501519 0.0405426 -0.138267 140 14 13
-0.50203 0.0428073 -0.139174 143 18 30
-0.501959 0.044957 -0.139311 145 23 30
-0.512812 -0.0212499 -0.149958 194 47 46
-0.51274 -0.0190688 -0.150097 206 53 44
-0.512667 -0.0168863 -0.150237 194 41 37
-0.512594 -0.0147024 -0.150377 178 34 24
-0.512521 -0.0125172 -0.150517 180 33 12
-0.512448 -0.0103305 -0.150658 172 34 20
-0.511753 -0.0081645 -0.149978 162 33 22
-0.510443 -0.00603213 -0.148488 150 29 23
-0.507926 -0.00397594 -0.145406 141 29 19
-0.504853 -0.00198462 -0.141586 138 22 9
-0.504189 0.000119366 -0.140941 129 15 1
-0.502939 0.00217465 -0.139522 107 0 3
-0.501999 0.012786 -0.139431 156 39 31
-0.501345 0.0148543 -0.138796 152 36 20
-0.501274 0.0169862 -0.138933 144 23 17
-0.500623 0.0190451 -0.1383 141 20 22
-0.499398 0.0210193 -0.136905 135 14 25
-0.498183 0.0229797 -0.135522 144 23 9
-0.498113 0.0250965 -0.135657 136 15 16
-0.498042 0.0272146 -0.135793 107 1 17
-0.497972 0.0293341 -0.135929 102 0 1
-0.497901 0.0314549 -0.136065 122 8 14
-0.498401 0.0336791 -0.136961 138 10 8
-0.498902 0.0359133 -0.13786 142 10 7
-0.499406 0.0381575 -0.138763 144 14 9
-0.499334 0.0402962 -0.1389 139 21 17
-0.49984 0.042556 -0.139807 146 22 15
-0.500347 0.0448261 -0.140718 151 24 32
-0.511161 -0.0213891 -0.151398 178 47 42
-0.511088 -0.0192079 -0.151538 186 36 27
-0.511637 -0.0170211 -0.152503 168 35 35
-0.512188 -0.0148239 -0.153472 162 33 22
-0.512741 -0.0126165 -0.154445 164 32 14
-0.512668 -0.0104164 -0.154587 159 28 4
-0.510721 -0.00828088 -0.152241 150 25 11
-0.510029 -0.00611751 -0.151559 137 12 21
-0.506898 -0.00408235 -0.147633 130 11 12
-0.50502 -0.00201841 -0.14537 121 12 17
-0.503165 2.25108e-05 -0.143134 106 13 13
-0.49974 0.0147217 -0.140196 154 26 17
-0.499668 0.0168538 -0.140333 150 22 16
-0.499019 0.018913 -0.139698 150 19 10
-0.497801 0.0208879 -0.138299 153 11 6
-0.496592 0.0228489 -0.13691 147 11 12
-0.496521 0.0249658 -0.137046 141 18 23
-0.49645 0.027084 -0.137182 128 4 7
-0.496378 0.0292036 -0.137319 83 0 6
-0.496875 0.0314222 -0.138217 105 1 5
-0.496803 0.0335486 -0.138354 130 10 8
-0.497301 0.0357827 -0.139257 140 6 8
-0.497801 0.0380267 -0.140163 147 17 3
-0.497729 0.0401656 -0.1403 149 10 13
-0.497657 0.0423058 -0.140438 151 26 15
-0.497585 0.0444474 -0.140576 150 28 22
-0.497514 0.0465903 -0.140714 148 28 15
-0.510676 -0.0193479 -0.154637 152 35 8
-0.510602 -0.0171563 -0.154778 140 23 25
-0.511778 -0.0149464 -0.156593 135 22 32
-0.512333 -0.0127301 -0.157577 137 23 27
-0.51163 -0.0105384 -0.156877 135 25 9
-0.510929 -0.00835421 -0.156181 126 17 11
-0.508992 -0.00622967 -0.153825 121 13 12
-0.505262 -0.00421894 -0.14906 109 11 8
-0.505189 -0.00205264 -0.1492 86 2 9
-0.498134 0.0145891 -0.141596 159 41 37
-0.497488 0.0166515 -0.140959 169 34 8
-0.496844 0.0187073 -0.140324 167 29 12
-0.496203 0.0207564 -0.139692 163 29 19
-0.495564 0.022799 -0.139062 155 27 26
-0.494928 0.0248351 -0.138435 158 26 18
-0.494856 0.0269534 -0.138572 150 24 21
-0.494785 0.0290732 -0.138709 112 9 23
-0.495277 0.0312916 -0.139611 86 0 13
-0.495772 0.03352 -0.140516 115 6 6
-0.4957 0.035652 -0.140654 135 14 13
-0.495628 0.0377855 -0.140791 149 18 8
-0.496124 0.0400349 -0.141701 153 15 19
-0.496051 0.0421753 -0.141839 156 28 13
-0.495411 0.044194 -0.141205 147 29 27
-0.495339 0.046333 -0.141343 151 24 20
-0.494701 0.0483425 -0.140711 135 32 16
-0.496528 0.0144565 -0.142997 150 36 22
-0.495885 0.0165193 -0.142357 172 36 22
-0.495244 0.0185754 -0.14172 177 32 19
-0.494605 0.0206249 -0.141086 174 30 15
-0.493969 0.0226679 -0.140454 169 27 28
-0.493335 0.0247043 -0.139825 171 31 14
-0.493263 0.0268228 -0.139962 170 31 10
-0.493191 0.0289426 -0.140099 153 25 16
-0.49368 0.0311609 -0.141004 88 1 9
-0.493607 0.0332876 -0.141142 87 0 9
-0.494098 0.0355214 -0.142051 124 12 10
-0.493463 0.0375451 -0.141417 143 17 12
-0.49339 0.0396759 -0.141555 152 18 24
-0.493317 0.0418081 -0.141693 158 27 16
-0.493245 0.0439417 -0.141832 155 33 19
-0.492612 0.0459507 -0.1412 150 29 22
-0.492539 0.0480829 -0.141339 144 33 20
-0.491909 0.0500828 -0.14071 90 13 22
-0.494281 0.016387 -0.143756 164 35 21
-0.493643 0.0184435 -0.143117 175 36 31
-0.493007 0.0204934 -0.14248 170 36 31
-0.492373 0.0225367 -0.141846 167 33 37
-0.491742 0.0245736 -0.141214 172 34 28
-0.491113 0.0266039 -0.140585 177 30 20
-0.490487 0.0286277 -0.139959 168 35 24
-0.490968 0.030837 -0.14086 135 23 28
-0.491451 0.0330562 -0.141765 80 1 6
-0.491378 0.0351802 -0.141903 87 0 11
-0.491306 0.0373057 -0.142041 125 17 16
-0.491233 0.0394325 -0.14218 145 30 25
-0.49116 0.0415607 -0.142318 153 26 19
-0.490532 0.0435692 -0.141687 149 33 22
-0.490459 0.045696 -0.141826 145 30 25
-0.489833 0.0476954 -0.141197 142 28 20
-0.488115 0.0494254 -0.139053 97 22 24
-0.492042 0.0183116 -0.144513 159 37 20
-0.491408 0.0203619 -0.143874 172 39 21
-0.490222 0.0223254 -0.142466 171 35 28
-0.489595 0.0243588 -0.141835 173 30 34
-0.488971 0.0263858 -0.141206 173 33 25
-0.487803 0.0283152 -0.139819 164 27 18
-0.489303 0.0328256 -0.142387 82 1 14
-0.489709 0.0371756 -0.143434 85 1 13
-0.489083 0.03919 -0.142802 127 26 29
-0.48901 0.0413142 -0.14294 149 28 30
-0.488937 0.0434398 -0.143079 144 35 22
-0.488313 0.0454423 -0.142448 140 25 13
-0.486604 0.0471839 -0.140297 134 27 16
-0.48599 0.0491667 -0.139677 93 26 30
-0.490367 0.0203068 -0.146049 148 36 21
-0.489181 0.0222744 -0.14463 164 35 26
-0.488005 0.0242283 -0.143222 175 35 38
-0.486294 0.0260817 -0.141062 169 37 39
-0.486221 0.0281857 -0.1412 153 35 21
-0.487163 0.0325958 -0.143006 82 8 7
-0.487489 0.0390603 -0.144192 79 11 3
-0.487415 0.0411846 -0.144331 116 21 26
-0.486795 0.0431902 -0.143699 125 35 20
-0.485093 0.0449435 -0.141541 126 28 19
-0.484482 0.0469294 -0.140919 113 18 21
-0.484408 0.0490388 -0.141057 75 14 20
-0.487585 0.0221432 -0.146022 134 19 21
-0.486961 0.0241811 -0.145384 154 35 21
-0.484712 0.025952 -0.142442 149 30 28
-0.484638 0.0280561 -0.14258 137 23 21
-0.485573 0.032466 -0.144393 57 1 4
-0.485202 0.043061 -0.145088 69 3 15
-0.483509 0.0448152 -0.142922 69 3 10
-0.4829 0.0468014 -0.142298 61 2 3
-0.482981 0.030032 -0.144099 58 1 1
