ply
format ascii 1.0
element vertex 1157
property float x
property float y
property float z
property uchar diffuse_red
property uchar diffuse_green
property uchar diffuse_blue
end_header
-0.542747 0.0424725 0.0736811 255 219 94
-0.535759 -0.0241852 0.0485478 118 97 82
-0.534508 -0.0227241 0.0499858 116 100 91
-0.53465 -0.0208818 0.0506446 130 111 78
-0.533407 -0.0194363 0.0520705 134 103 72
-0.532173 -0.0180004 0.0534866 112 103 98
-0.52757 -0.0175739 0.0567483 139 103 90
-0.525712 -0.0163654 0.0584896 231 144 62
-0.52453 -0.0149682 0.0598544 253 169 54
-0.523357 -0.01358 0.06121 255 169 55
-0.522191 -0.0122008 0.0625564 255 165 61
-0.521681 -0.0106239 0.0635447 255 175 65
-0.520528 -0.00926057 0.0648766 255 169 60
-0.519382 -0.00790592 0.0661996 255 166 44
-0.518881 -0.00634786 0.0671739 255 174 53
-0.517115 -0.0052223 0.0688194 255 188 66
-0.516621 -0.00367808 0.0697831 255 216 82
-0.516129 -0.00213845 0.0707437 255 233 83
-0.516266 -0.000383052 0.0713714 255 231 83
-0.516402 0.001373 0.0719993 255 228 84
-0.516538 0.00312972 0.0726274 255 225 89
-0.516047 0.0046579 0.0735826 255 226 100
-0.516184 0.00641299 0.0742102 255 226 104
-0.515694 0.00793436 0.0751615 255 226 102
-0.51583 0.00968783 0.0757885 255 223 99
-0.515966 0.011442 0.0764157 255 222 95
-0.516103 0.0131968 0.0770432 255 227 92
-0.516865 0.0151985 0.0773516 255 224 86
-0.517631 0.0172078 0.0776613 255 219 87
-0.537419 0.03227 0.0705591 255 225 83
-0.541797 0.0359083 0.0691131 255 221 77
-0.541943 0.037786 0.0697846 255 216 87
-0.541376 0.0393582 0.0708087 255 217 86
-0.541521 0.041234 0.0714794 255 216 88
-0.539543 0.0421779 0.0731928 255 219 91
-0.540353 -0.0219991 0.0438307 119 109 91
-0.539066 -0.0205244 0.0453066 149 89 86
-0.539211 -0.018655 0.0459747 139 102 86
-0.532343 -0.018813 0.050561 120 91 83
-0.531797 -0.0171776 0.0516006 101 103 105
-0.52989 -0.0159546 0.0533935 107 101 100
-0.526662 -0.0151501 0.0559089 142 112 79
-0.524808 -0.0139534 0.0576547 232 149 59
-0.52363 -0.0125636 0.0590224 253 166 63
-0.522459 -0.0111828 0.0603809 255 165 65
-0.521297 -0.00981093 0.0617302 255 158 61
-0.520788 -0.00823726 0.0627199 255 164 59
-0.519638 -0.00688121 0.0640547 255 169 48
-0.519134 -0.00531932 0.0650358 255 163 44
-0.517996 -0.00397886 0.0663563 255 169 61
-0.516865 -0.00264691 0.067668 255 184 70
-0.515742 -0.00132333 0.068971 255 207 64
-0.515878 0.00043532 0.0695995 255 223 70
-0.516014 0.00219463 0.0702283 255 236 78
-0.515523 0.00372657 0.0711887 255 234 88
-0.515034 0.00525398 0.072146 255 229 97
-0.514546 0.00677691 0.0731004 255 230 97
-0.514682 0.00852999 0.0737269 255 232 98
-0.514818 0.0102837 0.0743537 255 228 100
-0.514332 0.0117976 0.0753034 255 224 100
-0.514467 0.0135497 0.0759296 255 228 102
-0.515226 0.0155489 0.0762354 255 230 100
-0.516614 0.0178067 0.0762208 255 225 94
-0.51738 0.0198248 0.0765291 255 227 92
-0.52937 0.028213 0.0718474 255 222 94
-0.530185 0.0303188 0.0721591 255 229 83
-0.533043 0.0332971 0.0714443 255 221 85
-0.538035 0.0372146 0.0696694 255 220 98
-0.538179 0.0390799 0.0703361 255 224 84
-0.538324 0.0409459 0.0710029 255 222 86
-0.537767 0.0425029 0.0720178 255 221 89
-0.542006 -0.0224503 0.0399686 122 108 87
-0.541427 -0.0207628 0.0410569 129 91 81
-0.540849 -0.0190809 0.0421414 176 71 65
-0.540995 -0.0171976 0.0428142 134 86 75
-0.53335 -0.0175854 0.0478824 96 80 86
-0.53142 -0.0163518 0.0497076 97 87 90
-0.530876 -0.0147199 0.0507488 86 87 89
-0.528973 -0.0135089 0.0525462 85 71 87
-0.527091 -0.0123101 0.0543249 139 114 74
-0.524565 -0.011332 0.0564529 232 153 64
-0.523385 -0.009948 0.0578272 253 165 59
-0.521562 -0.00878438 0.0595513 255 162 50
-0.52105 -0.00720674 0.060548 255 159 46
-0.519895 -0.00584931 0.0618947 255 165 47
-0.518747 -0.00450054 0.0632323 255 164 43
-0.518885 -0.00272247 0.0638674 255 159 48
-0.517745 -0.00138771 0.0651942 255 161 48
-0.516613 -6.13809e-05 0.0665122 255 175 50
-0.516118 0.00148116 0.0674831 255 185 66
-0.515625 0.00301916 0.068451 255 204 78
-0.515134 0.00455257 0.0694158 255 221 80
-0.514644 0.00608143 0.0703776 255 230 86
-0.514156 0.0076058 0.0713363 255 231 92
-0.51367 0.00912569 0.0722921 255 232 102
-0.513806 0.0108797 0.0729186 255 230 98
-0.513941 0.0126343 0.0735454 255 228 99
-0.514077 0.0143897 0.0741724 255 231 103
-0.514213 0.0161457 0.0747997 255 229 95
-0.515597 0.0184058 0.0747799 255 225 92
-0.515734 0.0201691 0.0754098 255 226 94
-0.526181 0.0261854 0.0707344 255 229 102
-0.527651 0.028554 0.0707005 255 228 104
-0.529132 0.03094 0.0706667 255 231 102
-0.531982 0.0339229 0.0699411 255 220 95
-0.534873 0.0369491 0.0692054 255 223 98
-0.53571 0.0391068 0.0695179 255 223 84
-0.535854 0.0409664 0.0701822 255 224 94
-0.535998 0.0428268 0.0708468 255 221 96
-0.541491 -0.0235015 0.0373204 113 96 88
-0.540911 -0.0218095 0.0384151 119 110 99
-0.541057 -0.0199203 0.0390895 121 92 88
-0.540479 -0.0182366 0.0401795 135 72 76
-0.539903 -0.0165583 0.0412657 90 80 100
-0.534367 -0.0163444 0.0451746 96 81 96
-0.530355 -0.015728 0.0481973 90 91 94
-0.530497 -0.0138893 0.0488537 65 61 98
-0.529272 -0.0124709 0.050281 72 64 98
-0.528057 -0.011062 0.0516985 90 83 95
-0.526179 -0.00987507 0.0534817 144 114 74
-0.524321 -0.00870004 0.0552464 237 145 59
-0.522483 -0.00753658 0.0569928 254 163 48
-0.521314 -0.00616897 0.0583607 255 162 46
-0.520802 -0.00459218 0.0593612 255 158 49
-0.519001 -0.00346002 0.061069 255 167 52
-0.518497 -0.00189743 0.0620584 255 164 52
-0.517994 -0.000339552 0.0630446 255 160 46
-0.517493 0.00121366 0.0640278 255 158 45
-0.516994 0.00276225 0.0650077 255 160 60
-0.515234 0.00384657 0.0666674 255 173 70
-0.514743 0.00538147 0.0676366 255 184 73
-0.514253 0.00691178 0.0686029 255 205 81
-0.513764 0.0084376 0.0695661 255 225 88
-0.513278 0.00995891 0.0705262 255 234 95
-0.512793 0.0114757 0.0714833 255 236 93
-0.512928 0.0132307 0.0721099 255 234 88
-0.513064 0.0149863 0.0727367 255 234 96
-0.514444 0.017242 0.0727095 255 234 99
-0.51458 0.0190049 0.0733389 255 231 94
-0.516601 0.0215421 0.0729852 255 230 104
-0.521861 0.0254424 0.070955 255 234 106
-0.525275 0.0286161 0.0699004 255 230 101
-0.527409 0.0312772 0.0695194 255 225 98
-0.529565 0.0339673 0.0691347 255 222 91
-0.531063 0.0363909 0.0690953 255 227 86
-0.532572 0.0388326 0.0690559 255 227 91
-0.53203 0.0403793 0.0700645 255 228 98
-0.532173 0.0422267 0.0707241 255 223 95
-0.542434 -0.0241644 0.0338059 107 93 74
-0.54112 -0.0226613 0.0353391 139 108 83
-0.539815 -0.0211686 0.0368613 136 108 94
-0.539961 -0.0192792 0.0375355 129 103 113
-0.539385 -0.0175963 0.038628 91 78 96
-0.538094 -0.0161281 0.0401306 65 77 103
-0.533291 -0.0157139 0.0436479 82 93 115
-0.530661 -0.0146909 0.0459005 91 96 87
-0.529432 -0.0132651 0.047343 92 80 95
-0.529573 -0.0114254 0.0479994 93 89 86
-0.528352 -0.0100149 0.0494298 81 82 83
-0.527139 -0.00861363 0.0508502 88 62 73
-0.525935 -0.00722156 0.0522609 141 99 62
-0.523413 -0.00627555 0.0544071 231 126 40
-0.522893 -0.0046852 0.0554228 253 159 54
-0.521065 -0.00354314 0.0571656 255 161 55
-0.519903 -0.00219011 0.0585308 255 160 58
-0.519394 -0.000621323 0.0595295 255 170 53
-0.518887 0.000942703 0.060525 255 161 50
-0.517741 0.00227297 0.06187 255 161 42
-0.516603 0.00359474 0.0632059 255 159 49
-0.516105 0.00514019 0.0641873 255 167 67
-0.51435 0.00621328 0.0658512 255 168 75
-0.51386 0.00774507 0.0668219 255 173 71
-0.513371 0.00927233 0.0677895 255 183 61
-0.512884 0.0107951 0.0687541 255 197 62
-0.51302 0.0125555 0.0693823 255 215 74
-0.513156 0.0143167 0.0700108 255 229 85
-0.513292 0.0160785 0.0706395 255 233 95
-0.514051 0.018093 0.0709371 255 233 97
-0.515442 0.0203719 0.0709037 255 235 90
-0.518754 0.0234571 0.0698624 255 229 91
-0.521473 0.0263246 0.0691452 255 232 90
-0.523571 0.0289548 0.0687625 255 230 92
-0.524369 0.0310481 0.0690659 255 226 91
-0.527836 0.0343007 0.0679856 255 226 94
-0.52865 0.0364269 0.0682914 255 229 89
-0.530144 0.0388603 0.0682491 255 224 91
-0.529608 0.0404018 0.0692553 255 222 90
-0.52975 0.042243 0.0699123 251 205 87
-0.532763 0.0471821 0.0698405 129 86 66
-0.543389 -0.0248345 0.0302527 97 97 100
-0.541331 -0.0235193 0.0322409 125 100 91
-0.54002 -0.0220183 0.0337796 185 151 91
-0.538719 -0.0205276 0.0353072 209 196 113
-0.538865 -0.0186379 0.0359812 153 172 137
-0.538291 -0.0169559 0.0370764 77 63 90
-0.537003 -0.0154898 0.0385844 64 77 91
-0.534313 -0.0144558 0.0409018 76 80 103
-0.53097 -0.0136463 0.0435869 100 109 106
-0.529049 -0.0124301 0.045438 101 104 110
-0.528508 -0.0108008 0.0464882 101 103 92
-0.527968 -0.0091766 0.0475349 86 82 82
-0.527431 -0.00755744 0.0485781 80 67 78
-0.526222 -0.00616395 0.0500016 112 56 57
-0.525021 -0.00477959 0.0514152 181 73 19
-0.523828 -0.0034043 0.0528192 218 118 55
-0.521986 -0.00226268 0.0545846 248 154 62
-0.520814 -0.00090677 0.0559657 255 157 63
-0.520301 0.00066822 0.0569739 255 162 54
-0.519142 0.00200825 0.0583401 255 161 47
-0.518634 0.00357141 0.0593394 255 163 44
-0.517487 0.00489581 0.0606907 255 159 61
-0.516348 0.00621182 0.0620331 255 155 67
-0.515216 0.00751944 0.0633665 255 152 60
-0.513465 0.00858131 0.0650346 255 156 49
-0.512976 0.01011 0.0660066 255 164 51
-0.513112 0.0118761 0.0666365 255 169 60
-0.513874 0.0138885 0.0669275 255 175 62
-0.51401 0.0156589 0.0675589 255 189 68
-0.516038 0.0181905 0.0671725 255 205 80
-0.516175 0.0199714 0.0678077 255 218 81
-0.517585 0.0222766 0.0677629 255 229 80
-0.520295 0.0251355 0.0670307 255 235 84
-0.521734 0.0274841 0.0669832 255 234 81
-0.523183 0.0298498 0.0669357 255 236 81
-0.523981 0.0319485 0.0672362 255 235 88
-0.526112 0.0346331 0.0668404 255 227 90
-0.527592 0.0370512 0.0667925 255 227 87
-0.527733 0.038888 0.0674477 255 220 91
-0.527875 0.0407255 0.0681031 255 202 81
-0.528016 0.0425636 0.0687587 220 156 70
-0.5283 0.0462421 0.0700707 112 85 74
-0.542279 -0.0241859 0.0286788 100 96 78
-0.5395 -0.0230726 0.0311106 172 123 81
-0.538198 -0.0215758 0.0326504 221 171 80
-0.537623 -0.0198865 0.0337529 234 186 80
-0.537769 -0.0179965 0.0344267 142 138 95
-0.536481 -0.0165243 0.0359466 62 65 90
-0.535913 -0.0148513 0.0370379 53 64 98
-0.53323 -0.0138217 0.0393663 66 77 95
-0.530587 -0.0128062 0.0416614 98 92 105
-0.52935 -0.0113789 0.0431264 110 125 112
-0.528123 -0.00996114 0.0445811 94 90 102
-0.527583 -0.00833523 0.0456329 75 80 102
-0.527045 -0.00671442 0.0466811 69 73 106
-0.525835 -0.00532115 0.0481137 82 67 86
-0.525303 -0.00371292 0.0491524 138 63 51
-0.524105 -0.00233627 0.0505691 189 69 48
-0.522916 -0.000968607 0.0519761 213 116 59
-0.521735 0.000390143 0.0533734 243 147 60
-0.521218 0.00197145 0.0543912 253 165 55
-0.520702 0.0035479 0.0554057 255 160 52
-0.519537 0.00488351 0.0567821 255 159 50
-0.519027 0.00644807 0.0577876 255 158 55
-0.518518 0.00800785 0.0587899 255 157 65
-0.517369 0.00932084 0.0601458 255 156 66
-0.516867 0.010869 0.0611393 255 154 59
-0.515729 0.0121667 0.0624806 255 153 53
-0.515867 0.0139513 0.0631168 255 154 55
-0.51728 0.0162411 0.0630544 255 159 56
-0.518703 0.0185475 0.0629919 255 166 58
-0.519487 0.0206082 0.0632818 255 173 66
-0.519626 0.022411 0.0639245 255 177 65
-0.521718 0.0250238 0.0635125 255 180 61
-0.522514 0.0271122 0.0638062 255 188 70
-0.522653 0.0289297 0.0644541 255 197 77
-0.522793 0.0307479 0.0651022 255 207 81
-0.523592 0.0328522 0.0653999 255 220 84
-0.525058 0.035255 0.0653467 255 204 72
-0.526534 0.0376755 0.0652934 255 193 65
-0.526675 0.0395126 0.0659483 255 176 67
-0.526816 0.0413504 0.0666035 248 156 67
-0.525762 0.0444115 0.0686109 116 88 78
-0.525237 0.0459351 0.0696098 102 90 67
-0.541905 -0.0233379 0.026659 116 103 74
-0.538398 -0.0224284 0.0295479 187 148 79
-0.5371 -0.0209337 0.0310932 230 171 61
-0.536527 -0.0192452 0.0321983 250 181 74
-0.536672 -0.017355 0.0328719 127 106 92
-0.535388 -0.0158849 0.0343973 50 67 93
-0.534822 -0.0142128 0.0354911 44 72 91
-0.532147 -0.0131875 0.0378306 57 74 98
-0.530203 -0.011963 0.0397288 85 80 106
-0.528965 -0.0105359 0.0412031 81 88 108
-0.527736 -0.00911831 0.0426671 70 81 107
-0.526517 -0.00771014 0.0441209 70 81 103
-0.526658 -0.00586827 0.0447772 67 73 96
-0.525447 -0.00447528 0.0462188 69 67 88
-0.524915 -0.00286542 0.0472625 92 65 68
-0.524384 -0.00126055 0.0483028 162 61 49
-0.523856 0.000339306 0.0493396 163 73 62
-0.522666 0.00170094 0.0507534 158 109 73
-0.522806 0.00352424 0.0514031 199 135 63
-0.520965 0.00463401 0.0531793 239 154 56
-0.520449 0.00620953 0.0541977 252 154 58
-0.519934 0.0077802 0.0552128 255 157 66
-0.519421 0.00934612 0.0562246 255 155 65
-0.51891 0.0109072 0.0572331 255 158 60
-0.518401 0.0124637 0.0582383 255 160 57
-0.517894 0.0140153 0.0592403 255 161 55
-0.518032 0.0158156 0.0598818 255 163 51
-0.518817 0.017874 0.0601661 255 163 50
-0.519604 0.0199402 0.0604516 255 160 50
-0.520394 0.0220143 0.0607384 255 157 50
-0.521187 0.0240964 0.0610264 255 160 56
-0.522641 0.0264611 0.0609565 255 167 62
-0.523442 0.0285634 0.0612469 255 169 66
-0.522921 0.0301087 0.0622562 255 172 65
-0.523061 0.0319336 0.0629064 255 167 61
-0.523201 0.0337591 0.0635569 255 165 62
-0.525335 0.0364634 0.0631396 255 167 53
-0.525476 0.0383 0.0637941 255 164 49
-0.525617 0.0401373 0.0644487 250 153 51
-0.525231 0.0435075 0.0661114 124 87 64
-0.524707 0.0450349 0.0671159 110 88 69
-0.543609 -0.0238086 0.0225825 102 92 80
-0.54153 -0.0224866 0.0246312 140 107 75
-0.537296 -0.0217841 0.0279849 191 150 72
-0.536002 -0.0202914 0.0295357 225 170 67
-0.535431 -0.0186039 0.0306435 235 175 86
-0.535576 -0.0167134 0.0313168 119 80 88
-0.534296 -0.0152453 0.0328477 39 64 100
-0.533731 -0.0135741 0.0339441 49 68 103
-0.531064 -0.0125533 0.0362945 58 69 96
-0.529817 -0.0111167 0.0377888 69 77 98
-0.528578 -0.00968977 0.0392725 61 71 106
-0.527349 -0.00827238 0.0407459 60 75 102
-0.52545 -0.00708497 0.0426086 58 75 106
-0.525591 -0.00524281 0.0432646 67 65 97
-0.525733 -0.00339998 0.0439209 72 63 85
-0.524524 -0.00201477 0.0453656 86 64 67
-0.523994 -0.000408319 0.0464109 154 61 46
-0.523465 0.00119317 0.0474527 129 108 88
-0.522938 0.00278967 0.0484911 109 121 103
-0.522414 0.00438124 0.049526 142 121 88
-0.521891 0.00596789 0.0505576 158 127 72
-0.520055 0.00706574 0.0523382 196 135 65
-0.51954 0.00863799 0.0533581 237 156 63
-0.519027 0.0102054 0.0543747 252 158 57
-0.519166 0.0120165 0.0550197 254 159 54
-0.519304 0.0138283 0.0556649 255 160 51
-0.520096 0.0158965 0.0559431 255 156 50
-0.520891 0.0179725 0.0562225 255 154 53
-0.523012 0.0205872 0.055764 255 162 58
-0.523152 0.0224178 0.0564159 255 164 53
-0.523958 0.0245222 0.0566988 255 163 49
-0.524098 0.0263575 0.0573524 255 163 53
-0.524239 0.0281934 0.0580062 255 162 53
-0.52438 0.03003 0.0586603 255 165 58
-0.524521 0.0318673 0.0593146 255 164 58
-0.523995 0.033416 0.0603327 255 166 58
-0.524136 0.0352515 0.0609863 255 166 56
-0.524944 0.0373835 0.0612791 255 161 59
-0.525755 0.0395238 0.0615732 250 164 64
-0.525367 0.0429061 0.0632459 131 90 68
-0.525508 0.0447483 0.0639019 105 82 75
-0.546095 -0.0240848 0.0179749 100 77 76
-0.543234 -0.0229519 0.0205318 113 87 84
-0.541153 -0.021632 0.0225957 128 110 81
-0.536193 -0.0211397 0.0264217 176 130 58
-0.534904 -0.0196491 0.027978 213 155 58
-0.534334 -0.0179625 0.0290884 222 164 72
-0.534479 -0.0160717 0.0297615 115 78 85
-0.533203 -0.0146057 0.0312978 55 58 97
-0.53264 -0.0129354 0.0323968 47 60 111
-0.530678 -0.0117035 0.0343377 53 76 101
-0.529429 -0.0102672 0.0358415 65 70 98
-0.52819 -0.00884046 0.0373348 61 66 109
-0.526276 -0.007644 0.0392254 63 71 112
-0.524383 -0.00645966 0.0410961 67 64 95
-0.524525 -0.00461724 0.0417519 73 69 80
-0.524666 -0.00277411 0.042408 72 58 84
-0.523461 -0.00139089 0.0438578 112 68 74
-0.522932 0.00021474 0.0449055 151 62 56
-0.523072 0.00205017 0.0455588 123 114 94
-0.522545 0.00364823 0.0466021 111 123 97
-0.52202 0.00524136 0.047642 144 147 107
-0.521497 0.00682959 0.0486785 121 131 98
-0.520975 0.00841286 0.0497115 122 117 85
-0.519799 0.00974464 0.0511196 144 121 71
-0.519283 0.0113159 0.0521435 181 132 61
-0.51877 0.0128823 0.0531639 222 155 67
-0.519562 0.014952 0.0534377 246 166 64
-0.519701 0.0167711 0.0540853 253 164 59
-0.521815 0.019379 0.053615 254 160 57
-0.521955 0.0212092 0.0542664 255 157 59
-0.522758 0.023311 0.0545451 255 157 51
-0.523565 0.025421 0.054825 255 158 46
-0.525045 0.0278197 0.0547315 255 156 56
-0.525186 0.0296656 0.0553886 255 155 64
-0.525328 0.0315123 0.0560459 255 160 65
-0.524797 0.0330694 0.0570746 255 166 60
-0.524269 0.0346217 0.0581 255 162 63
-0.52441 0.036464 0.0587558 255 162 55
-0.524551 0.038307 0.0594118 253 155 56
-0.524834 0.041995 0.0607245 158 108 70
-0.524975 0.0438401 0.0613813 114 79 75
-0.544964 -0.023424 0.0163706 96 86 71
-0.542857 -0.022092 0.0184731 115 118 98
-0.540774 -0.0207741 0.0205522 116 113 93
-0.53581 -0.0202917 0.0244115 142 110 57
-0.533805 -0.0190066 0.0264201 188 145 55
-0.533238 -0.0173209 0.0275331 210 160 68
-0.533382 -0.0154298 0.0282059 112 82 79
-0.532817 -0.0137524 0.0293141 59 60 85
-0.532254 -0.0120803 0.0304185 56 63 91
-0.53029 -0.0108506 0.0323735 52 71 101
-0.528347 -0.0096335 0.0343076 56 72 110
-0.5278 -0.00798793 0.0353897 57 72 118
-0.525885 -0.00679367 0.037294 61 67 112
-0.523317 -0.00583425 0.0395833 73 66 80
-0.523457 -0.00399156 0.0402389 75 61 70
-0.523598 -0.00214817 0.0408947 93 57 64
-0.522397 -0.000766873 0.0423497 135 68 54
-0.522538 0.00107135 0.0430037 150 66 55
-0.52201 0.0026736 0.0440529 119 112 98
-0.522151 0.00450997 0.0447063 106 128 106
-0.521625 0.00610467 0.0457511 110 138 119
-0.521101 0.00769441 0.0467925 120 142 122
-0.520579 0.00927928 0.0478305 106 135 115
-0.52006 0.0108592 0.0488651 98 118 100
-0.518886 0.0121833 0.0502762 111 107 92
-0.518372 0.0137513 0.0513015 131 109 84
-0.518511 0.01557 0.0519485 157 123 71
-0.51996 0.0179096 0.0518442 195 136 66
-0.520758 0.0200008 0.0521174 232 152 70
-0.521559 0.0221001 0.0523918 251 163 71
-0.522363 0.0242075 0.0526674 255 163 65
-0.523839 0.0266014 0.0525657 255 166 65
-0.524652 0.0287295 0.0528436 255 169 71
-0.524793 0.0305791 0.0535016 255 160 68
-0.524935 0.0324293 0.0541599 255 156 64
-0.524404 0.0339878 0.0551936 255 163 64
-0.524545 0.0358362 0.0558512 255 158 63
-0.524016 0.0373873 0.0568806 252 159 62
-0.524298 0.0410811 0.0581947 178 132 69
-0.52444 0.042929 0.0588521 121 88 71
-0.545346 -0.0223533 0.0138088 105 97 87
-0.542479 -0.0212286 0.0164064 100 136 120
-0.540394 -0.0199129 0.0185008 102 125 120
-0.535426 -0.0194405 0.0223937 111 110 93
-0.534134 -0.0179501 0.0239702 157 103 53
-0.532851 -0.0164699 0.0255354 191 131 45
-0.532285 -0.0147879 0.02665 117 110 69
-0.531722 -0.0131113 0.0277609 67 61 75
-0.53116 -0.0114402 0.0288679 59 64 79
-0.5299 -0.00999444 0.0304019 60 63 76
-0.527956 -0.00877954 0.0323499 67 65 94
-0.526719 -0.00735508 0.033858 66 66 103
-0.525492 -0.00594017 0.0353554 71 61 93
-0.522921 -0.00498487 0.0376624 80 60 78
-0.52239 -0.00336577 0.0387256 92 65 58
-0.522531 -0.00152211 0.0393812 146 77 32
-0.522001 8.9311e-05 0.0404399 175 74 4
-0.521474 0.00169574 0.0414951 161 70 39
-0.521614 0.00353496 0.0421491 118 114 97
-0.521088 0.00513377 0.0431999 95 130 116
-0.520564 0.00672766 0.0442472 95 140 128
-0.520042 0.00831657 0.0452911 119 162 131
-0.519522 0.00990059 0.0463314 133 164 129
-0.519004 0.0114797 0.0473684 117 147 125
-0.518487 0.013054 0.048402 101 127 115
-0.517321 0.014369 0.0498122 98 116 112
-0.518112 0.0164456 0.0500801 106 108 102
-0.518905 0.0185301 0.0503493 124 109 89
-0.519701 0.0206226 0.0506196 141 113 78
-0.520501 0.0227233 0.0508911 151 124 75
-0.521303 0.0248321 0.0511638 168 139 75
-0.523444 0.0275089 0.050674 193 152 72
-0.524257 0.0296427 0.0509488 218 160 68
-0.524398 0.0314958 0.0516078 239 161 68
-0.52454 0.0333496 0.052267 251 167 78
-0.524681 0.0352042 0.0529264 238 168 80
-0.52415 0.0367615 0.0539641 220 160 70
-0.52362 0.0383141 0.0549985 192 144 70
-0.523093 0.0398618 0.0560294 158 103 73
-0.523903 0.0420149 0.0563145 122 86 74
-0.546345 -0.0230321 0.01004 88 79 87
-0.544969 -0.0214824 0.0117135 101 121 112
-0.542099 -0.0203619 0.0143316 88 130 123
-0.540012 -0.0190483 0.0164414 92 121 112
-0.53504 -0.018586 0.0203681 160 123 97
-0.533746 -0.0170957 0.0219548 224 156 78
-0.532462 -0.0156157 0.02353 245 171 46
-0.531896 -0.0139319 0.0246502 199 148 66
-0.531332 -0.0122535 0.0257665 103 71 77
-0.53077 -0.0105805 0.026879 61 70 92
-0.529509 -0.00913504 0.0284228 59 65 90
-0.527564 -0.00792235 0.0303849 65 64 89
-0.525639 -0.00672209 0.032326 80 57 79
-0.524415 -0.00530919 0.0338288 88 59 76
-0.522525 -0.00413235 0.0357344 109 58 62
-0.521323 -0.00273989 0.0372121 164 68 59
-0.521463 -0.000895947 0.0378674 202 79 46
-0.521604 0.000948699 0.0385231 202 91 44
-0.521076 0.00255668 0.0395833 188 100 63
-0.521216 0.00439947 0.0402383 128 116 100
-0.52069 0.00599989 0.041294 89 130 119
-0.519503 0.00735074 0.042743 93 134 125
-0.518983 0.00893883 0.0437893 102 144 134
-0.519122 0.0107714 0.0444406 135 173 135
-0.518604 0.012352 0.0454825 122 159 133
-0.518087 0.0139278 0.046521 105 149 129
-0.517572 0.0154987 0.0475561 152 181 136
-0.517711 0.0173243 0.0482049 149 163 128
-0.51785 0.0191507 0.048854 114 130 113
-0.519302 0.0215125 0.0487382 98 115 106
-0.519442 0.0233467 0.0493901 99 101 98
-0.520904 0.0257331 0.0492763 113 101 94
-0.522377 0.0281373 0.0491619 126 109 96
-0.52386 0.0305593 0.049047 141 121 102
-0.524002 0.032416 0.0497069 160 133 106
-0.524143 0.0342734 0.050367 170 124 97
-0.524285 0.0361315 0.0510274 167 114 77
-0.524426 0.0379903 0.051688 161 104 70
-0.523223 0.0392442 0.0531094 137 98 73
-0.522695 0.0407933 0.0541453 115 85 66
-0.547356 -0.0237185 0.00622801 98 83 71
-0.545203 -0.022365 0.00841974 98 96 87
-0.543831 -0.0208175 0.0100992 103 129 123
-0.54097 -0.0197018 0.0127293 97 139 117
-0.538889 -0.0183916 0.0148479 145 131 110
-0.53393 -0.0179375 0.0187951 225 179 82
-0.532641 -0.0164494 0.0203874 253 187 72
-0.531361 -0.0149715 0.0219681 255 187 76
-0.530797 -0.0132885 0.0230909 243 179 81
-0.530234 -0.011611 0.0242099 178 133 81
-0.529674 -0.009939 0.025325 110 83 78
-0.529116 -0.00827237 0.0264362 85 62 71
-0.526477 -0.0072861 0.0288446 83 68 72
-0.524559 -0.00608901 0.0307938 97 61 56
-0.523338 -0.0046781 0.0323018 166 65 55
-0.522126 -0.00327664 0.0337993 207 89 55
-0.520923 -0.0018845 0.0352862 231 95 58
-0.520395 -0.000269688 0.0363534 242 93 47
-0.520536 0.00157524 0.0370088 235 89 36
-0.520676 0.00342086 0.0376644 206 91 43
-0.52015 0.00502545 0.0387262 141 110 81
-0.519625 0.00662505 0.0397845 97 128 111
-0.519102 0.00821962 0.0408393 87 133 120
-0.518582 0.00980928 0.0418905 91 139 129
-0.518721 0.0116453 0.0425428 109 158 136
-0.518202 0.0132275 0.0435897 104 146 133
-0.517685 0.0148048 0.0446331 99 145 132
-0.517824 0.0166365 0.0452838 120 153 129
-0.517964 0.0184688 0.0459347 129 146 113
-0.518103 0.0203019 0.0465858 117 131 109
-0.518243 0.0221356 0.0472372 104 120 102
-0.519701 0.0245174 0.0471153 106 115 95
-0.520504 0.0266374 0.0473818 113 116 95
-0.521977 0.0290493 0.0472603 114 119 101
-0.522789 0.0311902 0.047529 130 141 120
-0.52293 0.0330472 0.0481886 146 154 129
-0.523072 0.0349049 0.0488485 137 132 112
-0.523213 0.0367633 0.0495087 132 114 89
-0.523354 0.0386224 0.0501691 126 96 78
-0.523496 0.0404822 0.0508298 113 94 75
-0.546207 -0.0230477 0.00459839 93 86 85
-0.5433 -0.0219055 0.00729493 91 118 110
-0.541938 -0.0203624 0.00897521 85 130 119
-0.539096 -0.0192519 0.0116086 95 135 110
-0.53703 -0.0179465 0.0137293 200 152 88
-0.532821 -0.017289 0.0172218 247 178 60
-0.531536 -0.0158029 0.0188197 255 194 68
-0.530259 -0.0143271 0.020406 255 196 78
-0.529697 -0.0126451 0.0215314 255 187 61
-0.529137 -0.0109685 0.022653 231 169 67
-0.527879 -0.00951911 0.0242144 193 140 63
-0.528022 -0.00763165 0.0248846 163 99 62
-0.526081 -0.00642441 0.0268691 150 79 50
-0.52416 -0.00522956 0.0288324 207 84 34
-0.522939 -0.00381893 0.03035 242 120 57
-0.521726 -0.00241777 0.0318569 254 108 54
-0.520523 -0.00102591 0.0333532 255 104 52
-0.519994 0.000590511 0.0344255 255 98 36
-0.519468 0.00220189 0.0354943 243 93 44
-0.519608 0.00404778 0.0361497 221 90 42
-0.519748 0.0058944 0.0368053 164 98 56
-0.519223 0.00749554 0.0378687 105 126 105
-0.5187 0.00909171 0.0389285 82 132 119
-0.518179 0.0106829 0.0399848 81 134 124
-0.517659 0.0122692 0.0410376 88 147 133
-0.517799 0.0141062 0.0416898 92 146 136
-0.517939 0.0159439 0.0423423 95 144 131
-0.517421 0.0175201 0.0433898 104 137 118
-0.518218 0.0196215 0.043648 111 130 112
-0.518358 0.0214613 0.0443013 112 126 109
-0.518498 0.0233019 0.0449548 108 118 105
-0.519298 0.0254193 0.045217 113 116 96
-0.520102 0.027545 0.0454803 120 123 95
-0.521577 0.0299648 0.0453515 114 131 103
-0.521718 0.0318213 0.0460107 112 133 115
-0.521859 0.0336786 0.0466701 119 131 117
-0.522 0.0355365 0.0473298 114 127 100
-0.522813 0.0376953 0.0475996 108 115 85
-0.522954 0.039558 0.048261 109 99 65
-0.545058 -0.0223768 0.0029685 99 93 90
-0.541405 -0.0214476 0.00617414 81 118 119
-0.540052 -0.0199089 0.00785525 75 117 108
-0.53723 -0.0188036 0.0104919 92 122 96
-0.535908 -0.0172907 0.0121383 203 162 76
-0.530285 -0.0170614 0.0165757 250 178 60
-0.529721 -0.0153693 0.0177116 255 191 65
-0.529158 -0.0136827 0.0188436 255 200 79
-0.527895 -0.0122191 0.020424 255 197 61
-0.527339 -0.0105461 0.0215453 255 188 68
-0.526785 -0.00887854 0.0226628 239 166 70
-0.526928 -0.00699079 0.0233327 219 142 67
-0.525683 -0.00555945 0.0248862 221 107 42
-0.524446 -0.00413782 0.0264287 245 95 38
-0.523219 -0.00272576 0.0279602 254 118 51
-0.521325 -0.00155569 0.0299072 255 130 69
-0.520792 6.99775e-05 0.030991 255 116 64
-0.518924 0.00121812 0.0329083 255 102 41
-0.518399 0.00282863 0.0339795 255 93 44
-0.518539 0.00467481 0.0346347 240 87 38
-0.518679 0.00652171 0.0352901 198 90 48
-0.518819 0.00836929 0.0359458 129 109 82
-0.518296 0.009967 0.0370107 91 126 109
-0.517774 0.0115598 0.038072 79 129 124
-0.517914 0.0134029 0.0387261 75 132 129
-0.518054 0.0152467 0.0393804 84 135 133
-0.517534 0.0168294 0.0404364 92 138 135
-0.517016 0.0184071 0.0414889 96 135 129
-0.517813 0.020514 0.041744 94 130 120
-0.517953 0.0223574 0.0423982 91 112 101
-0.518093 0.0242015 0.0430526 91 103 92
-0.518894 0.0263246 0.0433116 97 114 97
-0.519698 0.028456 0.0435719 101 118 101
-0.520505 0.0305957 0.0438333 97 124 109
-0.521315 0.0327437 0.0440958 97 135 116
-0.522128 0.0349002 0.0443596 99 132 116
-0.52227 0.0367651 0.0450214 93 115 108
-0.522411 0.0386307 0.0456835 93 99 90
-0.543909 -0.0217057 0.00133838 93 109 109
-0.540267 -0.0207826 0.0045593 71 100 105
-0.538173 -0.019457 0.00673925 67 106 114
-0.536104 -0.0181456 0.00889481 86 123 91
-0.534058 -0.0168483 0.0110264 197 158 67
-0.52918 -0.016415 0.0150077 250 180 65
-0.527912 -0.0149372 0.0166074 255 185 73
-0.527353 -0.0132542 0.0177391 255 198 75
-0.526797 -0.0115766 0.0188669 255 201 73
-0.526243 -0.00990454 0.0199908 255 193 70
-0.526386 -0.00801379 0.0206614 255 180 75
-0.525833 -0.00634983 0.0217805 244 156 67
-0.524592 -0.00492054 0.0233394 247 100 44
-0.524046 -0.00326988 0.024448 254 94 37
-0.523502 -0.00162452 0.0255529 255 108 44
-0.520247 -0.000923992 0.0283793 255 123 65
-0.519046 0.000465512 0.0298903 255 118 62
-0.518519 0.00208272 0.0309703 255 114 60
-0.517994 0.00369487 0.0320467 255 103 56
-0.518134 0.00554464 0.0327028 245 94 40
-0.51761 0.00714912 0.0337746 220 83 41
-0.51775 0.00899697 0.03443 162 84 61
-0.51789 0.0108455 0.0350857 104 103 95
-0.517368 0.0124398 0.0361522 78 118 107
-0.517508 0.0142865 0.0368072 76 124 113
-0.516988 0.0158733 0.0378691 80 124 123
-0.517128 0.0177181 0.0385235 83 129 130
-0.517267 0.0195636 0.0391781 86 131 124
-0.517407 0.0214099 0.0398329 76 110 115
-0.517547 0.0232568 0.040488 69 87 98
-0.518348 0.0253816 0.0407425 72 95 97
-0.518489 0.0272332 0.0413993 77 107 98
-0.519293 0.0293703 0.0416563 78 114 102
-0.520101 0.0315157 0.0419145 78 122 119
-0.520911 0.0336696 0.0421739 81 129 128
-0.521725 0.0358319 0.0424345 83 126 122
-0.521866 0.0377004 0.0430972 86 101 99
-0.522008 0.0395696 0.0437602 96 84 71
-0.543524 -0.0208235 -0.000806226 95 98 94
-0.539128 -0.0201176 0.00294419 134 75 89
-0.537041 -0.0187954 0.0051331 93 77 98
-0.534978 -0.0174875 0.00729749 76 91 91
-0.532214 -0.0164074 0.0099183 188 140 56
-0.528074 -0.0157686 0.0134395 245 177 54
-0.52681 -0.0142928 0.0150447 255 186 64
-0.525556 -0.0128271 0.0166383 255 192 65
-0.525699 -0.0109341 0.0173094 255 205 73
-0.525146 -0.00926285 0.018436 255 209 81
-0.525289 -0.00737181 0.0191064 247 184 76
-0.524738 -0.00570877 0.0202281 230 112 45
-0.523501 -0.00428154 0.0217924 242 103 38
-0.522956 -0.00263175 0.0229036 254 97 22
-0.522414 -0.000987266 0.024011 255 103 33
-0.519842 -5.74596e-05 0.0264193 255 110 57
-0.51931 0.00156901 0.0275109 255 123 60
-0.518112 0.00295055 0.0290251 255 139 75
-0.517587 0.00456432 0.0301066 255 112 62
-0.517063 0.00617298 0.0311845 253 99 46
-0.517203 0.00802372 0.0318407 234 92 47
-0.516681 0.00962477 0.0329141 198 83 42
-0.516821 0.0114736 0.0335695 146 81 69
-0.5163 0.013067 0.0346384 99 90 76
-0.51644 0.014914 0.0352932 81 101 94
-0.51658 0.0167617 0.0359482 82 105 104
-0.51672 0.0186101 0.0366035 86 124 113
-0.516201 0.0201908 0.0376661 82 122 102
-0.516999 0.022309 0.0379148 72 97 78
-0.517801 0.0244354 0.0381646 71 83 61
-0.517941 0.0262899 0.0388221 67 93 86
-0.518082 0.0281452 0.0394798 66 102 100
-0.518887 0.030288 0.0397336 70 109 98
-0.520364 0.0327315 0.0395828 73 119 107
-0.520506 0.0345988 0.0402447 76 121 112
-0.520647 0.0364669 0.040907 81 107 104
-0.520788 0.0383357 0.0415695 89 87 90
-0.543756 -0.0217138 -0.00418581 90 105 104
-0.542372 -0.0201509 -0.00244008 105 71 84
-0.538737 -0.0192403 0.000822657 164 60 56
-0.536649 -0.0179204 0.00302758 136 58 53
-0.533851 -0.0168293 0.0056999 111 53 64
-0.531096 -0.0157538 0.00833245 183 112 32
-0.526968 -0.015122 0.011871 232 165 48
-0.525708 -0.0136483 0.0134817 251 183 54
-0.524457 -0.0121847 0.0150809 255 190 68
-0.5246 -0.0102914 0.0157518 255 195 63
-0.524743 -0.00839728 0.0164229 255 199 84
-0.524192 -0.00672975 0.017551 224 131 63
-0.524335 -0.00483768 0.0182215 218 104 42
-0.523097 -0.00341078 0.0197958 238 87 38
-0.522552 -0.00175932 0.0209124 254 95 10
-0.522009 -0.000113127 0.0220252 255 99 36
-0.521468 0.00152777 0.0231342 255 103 59
-0.518903 0.00244043 0.0255489 255 116 61
-0.517704 0.00382163 0.0270726 255 134 75
-0.517178 0.00543699 0.0281594 255 113 52
-0.516654 0.00704725 0.0292425 255 101 55
-0.516132 0.00865247 0.030322 247 96 52
-0.515611 0.0102527 0.0313978 226 90 40
-0.515751 0.0121018 0.0320531 172 76 48
-0.515233 0.0136944 0.0331245 114 85 73
-0.515372 0.0155416 0.033779 83 102 99
-0.515512 0.0173896 0.0344338 76 112 110
-0.515651 0.0192382 0.0350888 80 126 124
-0.515791 0.0210876 0.0357441 87 137 131
-0.51659 0.0232114 0.0359896 86 124 124
-0.51673 0.0250655 0.0366465 83 104 100
-0.517532 0.0272017 0.0368945 78 103 99
-0.518338 0.0293462 0.0371437 67 105 111
-0.519146 0.0314991 0.037394 59 106 110
-0.519957 0.0336605 0.0376455 66 108 98
-0.520098 0.0355316 0.0383084 80 103 82
-0.52024 0.0374033 0.0389716 92 91 74
-0.538345 -0.0183596 -0.00130726 97 56 65
-0.536254 -0.0170419 0.000913755 92 51 56
-0.533455 -0.0159551 0.00360687 84 55 64
-0.530697 -0.0148839 0.00625981 122 91 56
-0.525862 -0.0144753 0.0103022 207 148 41
-0.524606 -0.0130037 0.0119185 239 172 50
-0.523359 -0.0115422 0.0135232 250 177 71
-0.523502 -0.00964859 0.0141938 239 178 72
-0.523645 -0.00775421 0.0148647 179 122 64
-0.523095 -0.00608758 0.0159955 199 116 39
-0.523238 -0.00419525 0.0166657 222 123 54
-0.523381 -0.00230219 0.0173361 229 93 42
-0.522833 -0.000646402 0.0184611 239 90 35
-0.521602 0.000764322 0.0200319 246 92 47
-0.521061 0.0024069 0.0211463 254 96 44
-0.519844 0.00380033 0.0226994 255 98 39
-0.517963 0.00493969 0.024678 255 108 46
-0.516768 0.00631289 0.0262048 255 102 37
-0.515581 0.00767694 0.027721 255 99 54
-0.51506 0.00928132 0.028803 255 103 64
-0.514542 0.0108807 0.0298814 253 117 66
-0.514681 0.0127301 0.0305363 196 91 66
-0.514821 0.0145802 0.0311916 126 107 91
-0.51496 0.016431 0.031847 114 136 121
-0.5151 0.0182825 0.0325028 104 150 134
-0.515239 0.0201348 0.0331587 92 154 144
-0.515379 0.0219877 0.033815 107 168 154
-0.515519 0.0238414 0.0344714 119 162 147
-0.516981 0.0262551 0.0343005 119 144 127
-0.517787 0.0284013 0.034545 114 141 121
-0.518595 0.030556 0.0347905 107 139 122
-0.518736 0.0324258 0.0354527 101 132 118
-0.519548 0.0345931 0.0357009 98 122 103
-0.544528 -0.0195043 -0.0096033 78 69 84
-0.54313 -0.0179373 -0.00782337 74 72 83
-0.540979 -0.0166021 -0.0055307 57 64 81
-0.536603 -0.0159417 -0.00171938 62 62 85
-0.533056 -0.0150775 0.00150565 67 72 94
-0.526724 -0.0150939 0.00661734 77 71 81
-0.523361 -0.0142584 0.0096827 166 117 55
-0.52281 -0.0125763 0.0108259 214 162 52
-0.52226 -0.0108996 0.0119652 233 159 58
-0.522403 -0.00900567 0.0126356 177 135 56
-0.522546 -0.00711103 0.0133063 121 93 35
-0.522688 -0.00521568 0.0139772 149 105 42
-0.522831 -0.00331959 0.0146483 214 149 62
-0.522974 -0.00142277 0.0153198 223 129 60
-0.522426 0.000234713 0.0164502 221 93 51
-0.52188 0.00188686 0.0175768 230 89 61
-0.520652 0.00328933 0.0191509 246 87 39
-0.520113 0.00492832 0.0202669 252 97 39
-0.518898 0.00631359 0.0218232 253 91 47
-0.516356 0.00719206 0.024243 255 99 39
-0.515168 0.00855571 0.0257687 255 98 30
-0.514647 0.0101616 0.0268559 255 105 47
-0.513472 0.0115088 0.0283646 248 105 59
-0.513611 0.0133584 0.0290194 196 92 60
-0.51375 0.0152088 0.0296744 125 111 88
-0.51389 0.0170599 0.0303296 101 137 117
-0.514029 0.0189117 0.0309851 88 144 142
-0.514169 0.0207642 0.0316408 83 149 151
-0.514966 0.0228911 0.0318786 94 157 156
-0.515766 0.0250263 0.0321176 103 159 145
-0.517235 0.0274533 0.0319373 100 148 131
-0.518714 0.0298984 0.0317561 94 142 124
-0.519528 0.0320678 0.0319977 93 140 118
-0.519669 0.0339481 0.0326632 92 135 113
-0.521166 0.0364323 0.0324844 90 120 99
-0.545549 -0.020184 -0.013605 67 67 84
-0.544138 -0.0186056 -0.0117995 71 84 78
-0.541201 -0.0174788 -0.00893579 79 71 93
-0.539065 -0.0161485 -0.00664134 71 77 80
-0.533243 -0.0159309 -0.00180251 67 64 78
-0.531197 -0.0146356 0.000404302 64 67 95
-0.529173 -0.0133542 0.00258648 61 70 90
-0.524349 -0.0129641 0.00668361 100 88 70
-0.522401 -0.0117142 0.00879133 189 132 42
-0.521851 -0.0100357 0.0099362 208 151 58
-0.521304 -0.00836267 0.0110771 144 103 53
-0.521447 -0.00646776 0.0117476 106 90 53
-0.521589 -0.00457211 0.0124182 113 98 65
-0.521732 -0.00267572 0.0130891 153 121 50
-0.521874 -0.000778628 0.0137603 215 150 54
-0.522017 0.00111919 0.0144317 224 141 58
-0.52147 0.00277302 0.0155639 214 92 52
-0.520926 0.00442152 0.0166921 223 83 46
-0.519702 0.00581575 0.0182694 232 82 47
-0.519164 0.00745115 0.0193871 246 93 34
-0.517953 0.00882822 0.0209466 254 93 20
-0.515417 0.00968959 0.0233727 255 94 9
-0.514232 0.0110452 0.0249016 255 94 25
-0.513713 0.0126477 0.0259903 246 93 37
-0.512541 0.0139869 0.0275021 177 86 59
-0.51268 0.0158376 0.0281569 109 97 73
-0.512819 0.017689 0.0288119 83 115 89
-0.513614 0.0198092 0.0290439 76 121 121
-0.513753 0.0216653 0.0297006 75 128 134
-0.515211 0.0240747 0.0295113 82 139 130
-0.516015 0.0262199 0.0297466 95 148 114
-0.51816 0.0289478 0.0291292 111 162 101
-0.51965 0.0314119 0.0289365 112 161 93
-0.521835 0.0341945 0.0283096 106 154 90
-0.524044 0.0370085 0.027676 102 141 80
-0.527683 0.0404847 0.0261505 95 110 72
-0.545793 -0.0210873 -0.0170942 99 94 80
-0.543596 -0.019717 -0.0147168 69 65 65
-0.542196 -0.0181432 -0.0129107 46 56 72
-0.542347 -0.0161364 -0.0122011 53 51 89
-0.540191 -0.014806 -0.00987452 54 53 79
-0.533579 -0.0148283 -0.00444156 83 71 95
-0.530794 -0.0137553 -0.0017035 85 83 76
-0.52949 -0.0122538 -6.59036e-06 77 75 79
-0.52748 -0.0109871 0.00217383 76 72 68
-0.523384 -0.0104053 0.00578678 123 97 54
-0.521441 -0.00916851 0.00789944 161 115 54
-0.520893 -0.0074937 0.00904598 141 96 32
-0.521035 -0.005595 0.00971739 108 102 64
-0.521178 -0.00369558 0.010389 111 124 99
-0.521321 -0.00179544 0.011061 115 127 89
-0.520774 -0.00013438 0.0122006 154 145 77
-0.520917 0.00176371 0.0128718 216 151 66
-0.521059 0.00366256 0.0135433 225 130 57
-0.51983 0.00506424 0.0151374 213 91 40
-0.519289 0.00670654 0.0162644 213 75 25
-0.518751 0.00834356 0.0173875 228 77 20
-0.517539 0.00972018 0.0189568 238 74 36
-0.515001 0.0105769 0.0214015 245 87 35
-0.514477 0.0121885 0.0225019 246 91 29
-0.513296 0.0135361 0.0240339 214 90 48
-0.512778 0.0151351 0.0251242 141 83 63
-0.513575 0.0172573 0.0253497 85 85 66
-0.513715 0.0191189 0.026008 75 95 77
-0.514515 0.0212534 0.026236 78 112 94
-0.515318 0.0233963 0.0264651 80 118 100
-0.516124 0.0255477 0.0266953 85 130 101
-0.518278 0.0282813 0.0260586 100 152 86
-0.520455 0.0310456 0.0254152 126 181 83
-0.522655 0.033841 0.0247649 127 177 89
-0.524184 0.0363606 0.0245533 108 151 86
-0.527131 0.0395275 0.0234436 99 122 74
-0.530122 0.0427425 0.0223174 96 92 66
-0.54858 -0.0193054 -0.0216008 90 94 96
-0.543203 -0.0188152 -0.016932 91 86 73
-0.541802 -0.0172415 -0.015114 59 72 67
-0.54118 -0.0154554 -0.0138555 37 44 89
-0.539795 -0.0139025 -0.0120595 44 64 76
-0.536156 -0.0130429 -0.00867997 70 71 94
-0.531119 -0.0126482 -0.00433267 115 89 92
-0.529808 -0.0111449 -0.00261959 95 89 84
-0.527789 -0.00987945 -0.000416453 75 63 68
-0.526503 -0.00839912 0.00126637 74 61 57
-0.523817 -0.00738879 0.00391677 109 79 23
-0.521171 -0.0063927 0.00652825 104 92 37
-0.521314 -0.0044867 0.00720191 97 122 93
-0.520765 -0.00281575 0.00835211 121 161 119
-0.520219 -0.00115016 0.00949836 130 161 121
-0.520361 0.000750975 0.0101703 117 136 107
-0.519816 0.00240836 0.0113116 166 137 66
-0.519959 0.00430745 0.0119828 225 161 65
-0.519416 0.00595675 0.0131192 214 130 64
-0.518875 0.00760068 0.0142517 159 84 56
-0.518336 0.00923935 0.0153803 161 77 40
-0.517123 0.0106155 0.0169596 184 78 48
-0.516591 0.0122412 0.0180776 196 77 52
-0.514059 0.0130807 0.0205286 175 90 52
-0.513537 0.0146888 0.0216306 130 101 83
-0.513677 0.0165559 0.0222906 94 104 104
-0.51448 0.0186924 0.0225119 78 103 101
-0.516624 0.0213861 0.0218512 83 106 80
-0.516765 0.023269 0.0225167 88 117 70
-0.519614 0.0262897 0.0214064 92 133 73
-0.521125 0.0287697 0.021182 96 138 79
-0.523342 0.0315668 0.020504 106 153 81
-0.524182 0.0337867 0.0207289 122 173 75
-0.525025 0.0360156 0.020955 119 162 74
-0.525872 0.0382536 0.0211821 103 132 76
-0.528853 0.0414586 0.0200386 98 104 69
-0.547391 -0.0186115 -0.0232876 75 73 107
-0.54359 -0.0176879 -0.0197187 56 77 123
-0.541406 -0.0163362 -0.0173262 39 52 85
-0.540784 -0.0145481 -0.0160611 63 56 60
-0.539397 -0.0129954 -0.0142533 44 49 62
-0.536507 -0.0119139 -0.0113819 59 59 80
-0.53292 -0.0110773 -0.00802824 87 78 71
-0.529401 -0.0102557 -0.00473796 74 76 59
-0.5281 -0.00876326 -0.0030266 68 67 70
-0.526808 -0.00728127 -0.00132785 62 46 57
-0.526238 -0.00557556 -0.000141 75 28 51
-0.524961 -0.00411236 0.0015379 84 70 61
-0.521594 -0.00337007 0.00466748 93 128 109
-0.520351 -0.00193252 0.0063074 102 145 123
-0.519804 -0.000265251 0.0074593 113 157 135
-0.519259 0.00139661 0.00860721 103 138 118
-0.518716 0.00305311 0.00975115 110 116 87
-0.518858 0.00495252 0.0104221 174 130 62
-0.519 0.00685264 0.0110933 234 171 72
-0.518459 0.00849823 0.0122314 199 141 72
-0.51792 0.0101385 0.0133655 130 91 76
-0.517382 0.0117736 0.0144957 115 94 76
-0.516173 0.0131415 0.0160783 117 97 81
-0.515642 0.0147636 0.0171979 107 110 96
-0.515113 0.0163805 0.0183138 94 123 115
-0.515253 0.0182615 0.0189782 90 137 131
-0.516738 0.0206915 0.0187453 86 136 128
-0.518233 0.02314 0.0185109 83 125 107
-0.520425 0.0258939 0.0178197 93 123 85
-0.523337 0.0289736 0.01666 107 123 77
-0.524882 0.031496 0.0164148 114 127 74
-0.525027 0.0334269 0.0170969 110 137 75
-0.525171 0.0353586 0.0177792 107 143 73
-0.526021 0.0376032 0.0180008 102 135 73
-0.527585 0.040175 0.0177602 97 107 69
-0.542412 -0.0170005 -0.0213895 117 71 73
-0.540235 -0.0156526 -0.0189873 123 79 54
-0.539615 -0.0138655 -0.0177193 79 67 67
-0.538997 -0.0120846 -0.016456 50 62 70
-0.536861 -0.0107761 -0.0141051 56 63 71
-0.534749 -0.00948194 -0.0117812 61 69 70
-0.529721 -0.00913266 -0.00738446 63 64 64
-0.528413 -0.00763846 -0.0056568 54 62 53
-0.527115 -0.00615485 -0.00394194 62 61 41
-0.525827 -0.00468165 -0.00223975 67 49 43
-0.525972 -0.00273992 -0.00155418 101 58 42
-0.523985 -0.00152531 0.000631183 98 110 93
-0.520627 -0.000806023 0.00376916 96 140 126
-0.5187 0.000381427 0.0058933 86 139 140
-0.518156 0.00204239 0.00704384 91 139 123
-0.518298 0.00394483 0.00771554 87 121 99
-0.517757 0.00559764 0.00886114 106 76 60
-0.517899 0.00749805 0.00953213 200 136 53
-0.518041 0.00939918 0.0102033 226 176 78
-0.517501 0.0110411 0.011343 140 121 91
-0.516964 0.0126778 0.0124788 93 120 103
-0.516428 0.0143092 0.0136107 97 140 118
-0.515895 0.0159353 0.0147387 101 152 128
-0.516711 0.0180971 0.0149481 95 145 132
-0.518211 0.0205439 0.0146982 121 159 144
-0.519037 0.0227275 0.0149092 120 165 147
-0.521245 0.0254939 0.0141936 100 150 130
-0.523478 0.0282919 0.0134703 93 137 115
-0.526446 0.0314245 0.0122648 115 130 88
-0.526591 0.0333694 0.0129515 137 127 73
-0.52745 0.0356258 0.0131649 143 132 69
-0.527596 0.0375759 0.0138534 126 134 69
-0.528458 0.039846 0.0140694 102 114 70
-0.545012 -0.0172236 -0.0266621 88 99 82
-0.541234 -0.016313 -0.0230605 128 124 87
-0.539063 -0.0149688 -0.0206488 139 129 78
-0.539214 -0.012953 -0.0199374 122 122 72
-0.53783 -0.0114029 -0.0181114 100 104 66
-0.536457 -0.0098641 -0.0162994 71 91 91
-0.535095 -0.00833646 -0.0145011 59 68 83
-0.530042 -0.00800087 -0.0100515 62 58 66
-0.528002 -0.00674048 -0.00778574 53 65 53
-0.526703 -0.00525716 -0.00605981 58 59 42
-0.52613 -0.00354501 -0.0048578 76 61 7
-0.525559 -0.00183861 -0.00366006 94 61 24
-0.52499 -0.000137876 -0.00246656 122 81 58
-0.523008 0.00106317 -0.000276065 93 107 96
-0.518281 0.00127106 0.00384326 79 120 113
-0.517737 0.00293372 0.00499948 80 126 116
-0.517196 0.00459099 0.00615169 66 113 110
-0.517338 0.00649444 0.00682341 60 61 72
-0.51748 0.00839863 0.00749538 117 77 32
-0.51694 0.010045 0.00864165 134 102 55
-0.517082 0.0119471 0.00931288 96 104 93
-0.517223 0.01385 0.0099844 80 121 119
-0.516685 0.0154855 0.0111247 91 136 129
-0.516827 0.0173863 0.0117955 97 145 127
-0.518333 0.0198391 0.0115326 88 142 140
-0.51985 0.0223107 0.011268 100 157 154
-0.521378 0.0248014 0.0110016 104 162 151
-0.52362 0.0276055 0.0102573 95 150 139
-0.525887 0.0304419 0.00950475 92 138 125
-0.526746 0.0326959 0.0097113 126 135 86
-0.527608 0.0349592 0.00991889 160 138 62
-0.528473 0.0372317 0.0101275 170 141 61
-0.528619 0.0391931 0.0108197 146 126 58
-0.529488 0.0414795 0.0110309 110 99 58
-0.546706 -0.019739 -0.032169 61 70 94
-0.546057 -0.0179033 -0.0308457 55 67 86
-0.543033 -0.0167557 -0.0277646 97 117 71
-0.539282 -0.0158513 -0.0241594 115 161 77
-0.537892 -0.014285 -0.0223105 121 174 83
-0.538042 -0.0122689 -0.0215994 166 190 88
-0.536663 -0.0107211 -0.0197672 158 183 92
-0.535294 -0.00918467 -0.0179489 127 160 88
-0.533936 -0.00765935 -0.0161445 90 118 74
-0.528899 -0.00733255 -0.0116732 76 101 66
-0.527589 -0.00583895 -0.00992309 67 85 53
-0.526289 -0.00435592 -0.00818603 55 76 19
-0.525715 -0.00264197 -0.00697793 60 73 9
-0.525144 -0.000933757 -0.00577417 100 85 31
-0.524574 0.000768777 -0.00457468 117 117 68
-0.523298 0.00221596 -0.00287299 76 71 79
-0.519934 0.00290441 0.000309062 75 83 89
-0.517316 0.00382846 0.0029473 69 84 92
-0.517458 0.00573852 0.00362098 64 65 79
-0.516916 0.00739467 0.00477788 60 45 43
-0.517058 0.00930265 0.00545083 72 58 40
-0.5172 0.0112114 0.00612407 67 73 61
-0.51666 0.0128566 0.00727499 70 96 93
-0.516802 0.0147633 0.00794749 73 116 106
-0.516944 0.0166707 0.00862025 78 127 120
-0.51777 0.0188535 0.00881955 83 137 127
-0.519978 0.021607 0.00806613 85 139 134
-0.521513 0.0241039 0.00778638 87 142 135
-0.523059 0.0266202 0.00750479 86 147 137
-0.524616 0.0291562 0.00722135 87 142 132
-0.526185 0.0317119 0.00693605 102 135 111
-0.528488 0.0345996 0.00615758 140 137 75
-0.528635 0.0365672 0.00685156 170 140 54
-0.528781 0.0385355 0.00754583 173 135 51
-0.529654 0.0408289 0.00775114 144 111 52
-0.529801 0.0428025 0.00844725 111 89 58
-0.546961 -0.0206603 -0.0358088 72 78 98
-0.545507 -0.0190398 -0.03387 57 61 81
-0.544064 -0.0174315 -0.0319464 58 65 65
-0.541061 -0.0162896 -0.0288629 93 127 64
-0.537336 -0.0153912 -0.0252543 115 170 60
-0.53672 -0.013601 -0.0239725 125 183 73
-0.536107 -0.011817 -0.0226955 143 182 82
-0.535495 -0.0100392 -0.0214232 168 198 92
-0.533379 -0.0087417 -0.0190442 135 180 86
-0.532777 -0.00698214 -0.0177883 108 155 73
-0.527755 -0.00666411 -0.0132951 92 137 71
-0.526449 -0.00517276 -0.0115391 82 121 60
-0.525873 -0.00345119 -0.0103206 72 104 54
-0.524582 -0.001979 -0.00858527 69 85 57
-0.524727 -2.53697e-05 -0.00789656 147 113 48
-0.523445 0.00142984 -0.00617645 115 121 81
-0.52288 0.00312575 -0.00497844 63 67 94
-0.522317 0.00481601 -0.00378468 73 68 87
-0.518962 0.00548126 -0.000594095 104 98 105
-0.517723 0.00689466 0.00107125 75 53 102
-0.517866 0.00881283 0.00174745 72 45 72
-0.51732 0.0104704 0.00291212 61 58 62
-0.517463 0.0123865 0.00358759 59 63 59
-0.517605 0.0143033 0.00426334 70 88 80
-0.517748 0.0162208 0.00493931 76 107 93
-0.518579 0.0184146 0.00513239 81 117 105
-0.519414 0.0206173 0.00532647 80 125 117
-0.521649 0.0234016 0.00454756 84 133 127
-0.5232 0.0259242 0.00425226 82 136 124
-0.524764 0.0284666 0.003955 76 137 125
-0.525623 0.0307245 0.00415083 84 133 115
-0.527205 0.033301 0.00385202 120 127 87
-0.528074 0.0355824 0.00404927 158 131 67
-0.52822 0.037554 0.00474434 171 135 63
-0.529092 0.0398494 0.00494423 148 118 62
-0.529239 0.0418263 0.00564113 116 90 68
-0.54641 -0.0218085 -0.0388604 92 102 86
-0.545757 -0.0199585 -0.0375167 77 100 101
-0.54351 -0.0185649 -0.0349669 52 68 93
-0.542869 -0.0167346 -0.0336411 49 78 72
-0.538321 -0.0160515 -0.0293721 91 132 70
-0.535399 -0.0149329 -0.0263451 112 179 67
-0.534787 -0.0131467 -0.025064 120 184 76
-0.534178 -0.0113668 -0.0237876 122 183 85
-0.532819 -0.00982801 -0.0219545 141 194 98
-0.532217 -0.00806337 -0.0206911 121 180 83
-0.530874 -0.00654477 -0.0188801 107 169 78
-0.525887 -0.00623287 -0.0143811 91 152 71
-0.52531 -0.00450646 -0.0131554 85 134 75
-0.524735 -0.00278586 -0.011934 77 126 68
-0.524163 -0.00107102 -0.0107171 78 109 76
-0.523593 0.000638035 -0.0095044 157 143 80
-0.523025 0.00234138 -0.0082961 109 97 82
-0.52246 0.00403906 -0.00709209 62 65 78
-0.521896 0.00573109 -0.00589235 63 68 89
-0.521335 0.00741749 -0.00469685 70 74 107
-0.520776 0.00909828 -0.00350557 62 63 104
-0.520219 0.0107735 -0.00231849 65 67 93
-0.520363 0.0127107 -0.00163594 58 68 93
-0.519112 0.0141075 4.31305e-05 71 47 77
-0.519255 0.0160389 0.000723659 91 62 63
-0.520096 0.0182483 0.000909791 101 86 70
-0.520239 0.0201848 0.00159212 100 93 90
-0.521786 0.0226942 0.00128494 94 102 98
-0.523344 0.0252232 0.000975716 89 107 106
-0.52563 0.0280716 0.000161827 78 118 108
-0.525776 0.0300368 0.000854269 73 126 110
-0.525922 0.0320027 0.00154695 95 120 97
-0.52751 0.0345942 0.00123685 135 121 72
-0.529111 0.0372062 0.000924638 155 123 67
-0.529258 0.0391894 0.00162342 145 107 64
-0.528677 0.0408467 0.00282482 121 86 54
-0.528824 0.0428276 0.00352279 102 81 61
-0.546666 -0.0227433 -0.0425485 83 81 82
-0.54601 -0.0208843 -0.0411925 84 118 115
-0.544553 -0.0192565 -0.0392249 76 121 124
-0.541522 -0.0180918 -0.0360596 80 124 127
-0.540886 -0.0162658 -0.0347346 79 133 127
-0.53637 -0.0155893 -0.0304614 90 139 87
-0.534227 -0.0142489 -0.0280074 104 168 68
-0.532862 -0.0126941 -0.0261515 113 178 65
-0.532257 -0.0109182 -0.0248757 113 183 83
-0.530908 -0.00938387 -0.0230422 122 188 85
-0.530311 -0.00762323 -0.0217793 115 177 65
-0.529717 -0.00586862 -0.0205211 108 168 48
-0.524745 -0.00556548 -0.0160005 112 168 69
-0.52417 -0.00384005 -0.014772 116 164 76
-0.523598 -0.00212041 -0.0135478 109 160 82
-0.523027 -0.000406582 -0.012328 102 146 85
-0.522459 0.00130152 -0.0111125 118 136 75
-0.522604 0.00325647 -0.0104241 80 85 79
-0.522749 0.0052122 -0.0097353 61 63 85
-0.521474 0.00664972 -0.00800823 55 54 89
-0.520913 0.00833786 -0.00680673 51 61 93
-0.520353 0.0100204 -0.00560952 56 54 88
-0.520497 0.0119643 -0.0049249 55 61 95
-0.51994 0.0136384 -0.00373294 60 63 96
