ply
format ascii 1.0
element vertex 1151
property float x
property float y
property float z
property uchar diffuse_red
property uchar diffuse_green
property uchar diffuse_blue
end_header
-0.548076 -0.0142916 0.038499 247 165 68
-0.546265 -0.0121671 0.0395683 255 161 54
-0.545369 -0.01001 0.0401043 255 162 57
-0.543579 -0.00791394 0.0411607 255 171 61
-0.543587 -0.00571933 0.0411697 255 165 55
-0.542701 -0.00358575 0.0416992 255 171 43
-0.543601 -0.00132765 0.0411877 255 176 47
-0.543608 0.000869469 0.0411967 255 173 51
-0.544512 0.00314283 0.0406831 255 174 63
-0.54452 0.00534608 0.0406921 255 179 66
-0.545427 0.00763483 0.0401765 255 187 62
-0.546338 0.00993372 0.0396588 255 195 63
-0.546346 0.0121484 0.0396678 255 200 65
-0.545449 0.0142655 0.0402036 255 204 70
-0.545456 0.0164773 0.0402127 255 200 74
-0.542774 0.0183702 0.041789 255 207 79
-0.541891 0.0204601 0.0423162 255 210 82
-0.54013 0.0224288 0.0433554 255 206 75
-0.538383 0.0243827 0.0443862 255 196 80
-0.534924 0.0260821 0.0464146 255 192 80
-0.532367 0.0278775 0.0479171 255 192 73
-0.531526 0.0299036 0.0484198 255 188 77
-0.530688 0.0319226 0.0489207 255 188 70
-0.530695 0.0340681 0.0489294 255 184 70
-0.53496 0.0369116 0.0464589 255 181 67
-0.538434 0.0396651 0.0444488 255 180 69
-0.539317 0.0420038 0.0439479 255 178 72
-0.541085 0.0445104 0.0429312 255 169 69
-0.541979 0.0468746 0.0424243 236 158 72
-0.542876 0.0492491 0.0419154 159 100 84
-0.542883 0.0514611 0.0419244 111 85 84
-0.546801 -0.0165027 0.0366762 144 122 93
-0.545899 -0.0143295 0.0372199 189 140 67
-0.5441 -0.0122089 0.038292 247 161 55
-0.54321 -0.0100559 0.0388291 254 169 60
-0.542323 -0.00791071 0.039364 255 169 49
-0.54144 -0.00577335 0.0398968 255 165 57
-0.541447 -0.00358217 0.0399054 255 167 63
-0.542344 -0.00132387 0.0393899 255 175 58
-0.542351 0.000873439 0.0393986 255 170 68
-0.542358 0.00307156 0.0394072 255 161 69
-0.542365 0.00527051 0.0394159 255 166 58
-0.543266 0.00755466 0.0388984 255 174 58
-0.543273 0.00975976 0.0389071 255 166 60
-0.54328 0.0119656 0.0389158 255 170 64
-0.542393 0.0140747 0.0394505 255 173 68
-0.54151 0.0161761 0.0399832 255 171 58
-0.54063 0.0182698 0.0405137 255 169 61
-0.538874 0.0202466 0.0415597 255 173 68
-0.537132 0.0222085 0.0425974 255 177 67
-0.535403 0.0241556 0.0436268 255 175 63
-0.531981 0.0258503 0.0456528 255 169 65
-0.531139 0.0278837 0.0461607 255 177 63
-0.5303 0.02991 0.0466666 255 176 66
-0.530307 0.0320591 0.046675 255 187 69
-0.531159 0.0343437 0.0461861 255 185 70
-0.535445 0.0372014 0.0436782 255 180 66
-0.53806 0.0398201 0.0421528 255 178 65
-0.538944 0.0421639 0.041646 255 178 77
-0.539831 0.044518 0.0411372 244 169 81
-0.540721 0.0468824 0.0406263 187 136 76
-0.541616 0.0492572 0.0401134 130 99 78
-0.541623 0.0514693 0.0401221 102 87 82
-0.542832 -0.0144074 0.03648 140 111 87
-0.541944 -0.0122506 0.0370205 171 130 84
-0.541951 -0.0100528 0.0370288 238 149 67
-0.541066 -0.00790749 0.037567 250 170 60
-0.540185 -0.00576994 0.0381031 254 160 53
-0.540192 -0.00357857 0.0381114 255 171 62
-0.541087 -0.00132007 0.0375919 255 168 62
-0.541094 0.000877407 0.0376002 255 175 58
-0.5411 0.00307572 0.0376085 255 167 58
-0.541107 0.00527484 0.0376168 255 175 59
-0.541114 0.00747483 0.0376252 255 169 63
-0.541121 0.00967562 0.0376335 255 170 70
-0.54024 0.0117844 0.0381695 255 169 64
-0.540246 0.0139824 0.0381778 255 165 64
-0.539369 0.0160799 0.0387115 255 174 55
-0.538495 0.0181698 0.0392432 255 171 61
-0.53675 0.0201433 0.0402919 255 165 59
-0.535887 0.0222143 0.0408172 255 176 59
-0.534163 0.0241615 0.0418533 255 180 56
-0.5316 0.025975 0.0433882 255 181 63
-0.52991 0.02789 0.044404 255 179 60
-0.529917 0.0300426 0.0444122 255 176 62
-0.529924 0.0321961 0.0444203 255 182 65
-0.533337 0.0348945 0.0424053 255 179 73
-0.535934 0.0374935 0.040875 255 176 69
-0.537685 0.0399757 0.0398473 251 179 75
-0.538569 0.0423247 0.0393345 242 174 84
-0.539457 0.0446841 0.0388197 195 143 82
-0.540348 0.0470538 0.0383028 142 106 82
-0.540355 0.0492652 0.0383112 113 91 64
-0.541578 -0.0122032 0.0346844 147 98 97
-0.541584 -0.0100008 0.0346924 194 95 85
-0.541591 -0.00779755 0.0347004 198 125 64
-0.541598 -0.00559349 0.0347084 232 146 73
-0.541604 -0.0033886 0.0347164 245 175 64
-0.541611 -0.00118289 0.0347244 250 168 50
-0.540725 0.000952384 0.0352681 254 168 50
-0.539842 0.00307987 0.0358095 255 168 46
-0.539849 0.00527919 0.0358175 255 168 57
-0.539855 0.00747933 0.0358255 255 164 72
-0.538977 0.00959188 0.0363647 255 174 68
-0.538983 0.0117893 0.0363727 255 168 66
-0.538108 0.0138905 0.0369098 255 161 64
-0.537236 0.0159842 0.0374447 255 177 67
-0.536368 0.0180703 0.0379775 255 170 69
-0.534635 0.0200404 0.0390288 255 169 63
-0.533777 0.0221076 0.0395552 255 171 65
-0.532923 0.0241674 0.0400796 255 166 59
-0.531218 0.0261002 0.0411142 255 171 60
-0.530373 0.0281416 0.0416324 255 172 59
-0.53038 0.030303 0.0416403 255 172 58
-0.532091 0.0327297 0.0406255 255 179 65
-0.534681 0.0353151 0.0390841 249 174 75
-0.536427 0.0377879 0.038049 243 176 83
-0.537308 0.0401319 0.0375322 220 173 97
-0.538193 0.0424862 0.0370134 176 145 93
-0.539082 0.0448508 0.0364926 138 119 88
-0.539088 0.0470616 0.0365006 120 98 84
-0.549418 -0.0117447 0.0273633 164 93 93
-0.543918 -0.00979971 0.0307082 172 76 83
-0.54302 -0.00763261 0.0312642 147 85 68
-0.543027 -0.0054149 0.0312719 141 88 87
-0.543033 -0.0031963 0.0312796 147 121 75
-0.542139 -0.00104456 0.0318332 192 141 66
-0.541248 0.00109927 0.0323846 243 163 77
-0.540361 0.00323529 0.0329338 248 163 67
-0.53859 0.00528353 0.0340178 249 165 64
-0.538597 0.00748387 0.0340255 248 166 71
-0.53772 0.00959657 0.034568 250 169 75
-0.536847 0.0117016 0.0351084 252 168 72
-0.535978 0.013799 0.0356466 253 165 62
-0.535984 0.0159894 0.0356542 253 168 68
-0.535118 0.0180757 0.0361902 253 163 70
-0.53339 0.020046 0.0372483 253 171 70
-0.532535 0.0221133 0.037778 252 168 73
-0.531682 0.0241733 0.0383055 250 163 73
-0.531689 0.0263461 0.0383131 246 176 72
-0.53084 0.0283953 0.0388385 245 172 76
-0.530846 0.0305654 0.0388461 243 173 76
-0.532566 0.033003 0.0378158 242 170 83
-0.5343 0.035461 0.0367772 203 168 95
-0.536047 0.0379396 0.0357303 173 151 99
-0.536929 0.0402888 0.0352076 154 142 109
-0.537815 0.0426483 0.0346827 130 140 113
-0.537821 0.0448585 0.0346904 112 123 104
-0.538711 0.0472337 0.0341634 110 97 90
-0.540877 0.00117519 0.030027 127 72 100
-0.539988 0.00331555 0.0305817 141 92 81
-0.538216 0.0053678 0.0316771 161 121 80
-0.537338 0.0074884 0.0322252 175 147 78
-0.536464 0.00960125 0.032771 201 150 78
-0.535593 0.0117065 0.0333146 215 150 70
-0.534726 0.0138041 0.0338561 227 156 74
-0.533862 0.0158941 0.0343954 221 152 87
-0.533868 0.0180811 0.0344026 222 160 82
-0.532145 0.0200516 0.0354675 221 161 84
-0.532151 0.0222315 0.0354748 212 165 85
-0.531298 0.0242956 0.0360076 195 164 90
-0.531304 0.0264729 0.0360149 181 158 82
-0.53131 0.028651 0.0360221 166 139 81
-0.531316 0.0308299 0.0360293 154 121 83
-0.533044 0.0332786 0.0349833 141 115 101
-0.534786 0.0357477 0.0339288 124 126 113
-0.536543 0.0382376 0.0328659 129 143 114
-0.536549 0.0404463 0.0328733 139 141 125
-0.537435 0.0428111 0.0323423 123 141 142
-0.538326 0.0451862 0.0318091 101 126 130
-0.538332 0.0474064 0.0318165 101 95 91
-0.549636 -0.00933588 0.0219634 109 97 114
-0.547779 -0.00718501 0.0231215 128 103 118
-0.545938 -0.00505101 0.02427 112 112 120
-0.545026 -0.00286932 0.0248443 83 87 120
-0.544117 -0.000695724 0.0254162 77 75 123
-0.543213 0.0014698 0.0259857 72 69 120
-0.538722 0.00331974 0.0287708 80 82 88
-0.537839 0.00545242 0.0293266 90 84 107
-0.536079 0.00749293 0.0304246 114 130 109
-0.535207 0.00960597 0.0309737 158 138 98
-0.535213 0.0118039 0.0309807 145 121 96
-0.533474 0.0138091 0.0320653 139 110 94
-0.532612 0.0158993 0.0326079 133 115 106
-0.532618 0.0180865 0.0326148 134 106 94
-0.53176 0.0201656 0.0331552 134 110 104
-0.530905 0.0222373 0.0336934 131 111 116
-0.530911 0.0244183 0.0337003 120 120 118
-0.530917 0.0266001 0.0337071 123 113 99
-0.530923 0.0287827 0.033714 108 108 96
-0.531789 0.0310966 0.0331897 96 112 100
-0.532659 0.0334205 0.0326632 99 121 120
-0.535277 0.0360367 0.0310572 107 134 123
-0.535283 0.0382447 0.0310642 119 146 126
-0.536167 0.0406044 0.0305292 117 154 150
-0.537054 0.0429745 0.029992 105 142 150
-0.537945 0.045355 0.0294527 95 121 136
-0.537951 0.0475799 0.0294597 97 96 91
-0.548339 -0.00933272 0.020109 82 85 102
-0.547414 -0.00712548 0.0206964 103 98 119
-0.546493 -0.00492657 0.0212813 88 100 116
-0.544657 -0.00280089 0.0224371 79 86 111
-0.542836 -0.000691844 0.0235833 77 80 100
-0.541934 0.00147384 0.0241563 70 73 97
-0.537455 0.0033239 0.0269596 76 75 98
-0.536575 0.00545679 0.0275188 101 92 105
-0.53482 0.00749745 0.0286237 110 135 112
-0.53395 0.00961067 0.0291761 125 155 127
-0.533956 0.0118088 0.0291827 125 148 128
-0.532221 0.0138142 0.0302743 128 145 129
-0.532227 0.0160051 0.0302808 106 144 136
-0.531368 0.0180919 0.0308266 102 137 129
-0.531373 0.0202802 0.0308332 142 164 131
-0.530517 0.0223559 0.0313768 118 146 140
-0.531384 0.0246592 0.0308463 111 141 125
-0.53139 0.0268499 0.0308529 112 124 115
-0.531395 0.0290415 0.0308595 101 116 109
-0.531401 0.0312339 0.0308661 95 120 115
-0.53314 0.0336994 0.0297923 116 144 134
-0.534017 0.0360436 0.0292555 109 146 127
-0.534898 0.0383982 0.0287165 100 157 151
-0.535783 0.0407631 0.0281753 93 162 167
-0.536671 0.0431385 0.0276319 89 149 149
-0.536676 0.0453627 0.0276386 86 116 125
-0.537568 0.047754 0.027093 98 97 89
-0.547042 -0.00932957 0.0182544 58 75 102
-0.547048 -0.00706575 0.0182608 65 79 117
-0.546125 -0.00486216 0.0188516 65 79 119
-0.544286 -0.00273217 0.0200195 64 79 110
-0.541554 -0.000688004 0.0217502 65 70 104
-0.540654 0.00147787 0.0223265 78 68 82
-0.537075 0.00340452 0.0245897 85 68 78
-0.536194 0.00554175 0.0251544 96 81 85
-0.53356 0.00750196 0.0268225 108 122 108
-0.532693 0.00961537 0.0273782 112 140 117
-0.532698 0.0118137 0.0273845 123 155 129
-0.531834 0.0139158 0.0279379 134 172 142
-0.530974 0.0160103 0.0284891 117 176 156
-0.530979 0.0182023 0.0284954 105 151 149
-0.530985 0.0203952 0.0285016 119 153 135
-0.53099 0.0225888 0.0285079 119 147 131
-0.530995 0.0247833 0.0285141 109 140 128
-0.531866 0.0271018 0.0279754 106 129 118
-0.531872 0.0293024 0.0279817 106 120 101
-0.531877 0.0315038 0.027988 95 122 116
-0.532752 0.033843 0.0274472 100 143 134
-0.53363 0.0361925 0.0269042 91 148 145
-0.535392 0.0386999 0.0258052 90 158 157
-0.53628 0.0410752 0.0252556 85 153 162
-0.536286 0.0433033 0.0252619 81 141 140
-0.537178 0.0456946 0.0247101 88 112 118
-0.538075 0.0480965 0.024156 100 92 83
-0.545745 -0.00932642 0.0163994 58 70 105
-0.54575 -0.0070624 0.0164055 57 77 115
-0.54483 -0.00485865 0.0169998 65 81 110
-0.542997 -0.00272848 0.018175 64 72 115
-0.540272 -0.000684136 0.0199167 67 72 97
-0.539374 0.00148192 0.0204965 79 70 91
-0.535806 0.00340871 0.0227742 91 73 83
-0.534927 0.00554612 0.0233423 128 78 66
-0.5323 0.0075065 0.025021 116 111 92
-0.531435 0.00962006 0.02558 103 138 116
-0.53144 0.0118186 0.0255859 95 143 141
-0.530579 0.0139209 0.0261426 116 165 140
-0.530584 0.0161166 0.0261485 114 177 164
-0.530589 0.0183133 0.0261544 101 148 152
-0.530594 0.0205107 0.0261603 102 141 131
-0.530599 0.0227089 0.0261663 103 140 133
-0.531471 0.0250272 0.0256215 96 131 133
-0.531476 0.0272316 0.0256274 93 113 108
-0.531481 0.0294368 0.0256333 83 106 95
-0.531487 0.0316428 0.0256393 80 117 117
-0.532362 0.0339872 0.0250922 78 126 136
-0.534118 0.036485 0.0239856 75 142 148
-0.535004 0.0388552 0.0234319 79 148 149
-0.536782 0.0413899 0.0223118 76 141 150
-0.536787 0.0436272 0.0223178 79 128 131
-0.539479 0.0463586 0.0206173 95 104 93
-0.542204 0.0491248 0.0188957 102 92 78
-0.544448 -0.00932328 0.0145441 65 63 93
-0.544453 -0.00705906 0.0145498 61 66 98
-0.542617 -0.00491604 0.0157373 70 70 104
-0.541707 -0.00272479 0.0163302 69 73 108
-0.539893 -0.000611156 0.017503 72 65 102
-0.538094 0.00148594 0.0186661 88 61 86
-0.535422 0.00348969 0.0203902 128 70 76
-0.533659 0.00555049 0.0215298 182 92 62
-0.531911 0.00759545 0.0226602 177 100 81
-0.531045 0.00971333 0.0232247 116 135 123
-0.530182 0.0118235 0.023787 87 145 133
-0.530187 0.014023 0.0237926 90 142 143
-0.530192 0.0162234 0.0237982 89 157 149
-0.529333 0.0183187 0.0243582 84 149 147
-0.530202 0.0206266 0.0238094 89 140 141
-0.530207 0.0228295 0.023815 91 146 143
-0.530212 0.0250332 0.0238205 92 137 137
-0.530217 0.0272378 0.0238261 87 90 93
-0.530222 0.0294432 0.0238317 76 88 89
-0.531094 0.0317824 0.0232807 73 110 114
-0.53197 0.034132 0.0227275 68 121 129
-0.533728 0.0366357 0.0216087 66 136 135
-0.535501 0.0391606 0.0204807 72 141 140
-0.538184 0.041863 0.0187685 75 138 135
-0.539089 0.0442755 0.018197 99 129 112
-0.541817 0.0470337 0.0164564 104 103 83
-0.543656 0.0496526 0.0152859 97 90 72
-0.54315 -0.00932015 0.0126885 52 70 101
-0.543155 -0.00705573 0.0126939 56 68 101
-0.541324 -0.00491252 0.0138887 62 71 105
-0.540416 -0.00272108 0.0144851 76 70 103
-0.538608 -0.000607293 0.0156651 91 73 87
-0.537712 0.00156343 0.0162542 161 59 72
-0.535035 0.00357096 0.0179962 209 93 52
-0.533271 0.00563583 0.0191476 235 103 40
-0.531521 0.00768478 0.0202895 224 101 60
-0.530653 0.00980692 0.0208597 149 118 98
-0.52979 0.0119213 0.0214275 95 135 121
-0.528929 0.014028 0.0219931 75 136 136
-0.528934 0.0162286 0.0219984 72 142 145
-0.528938 0.01843 0.0220036 70 148 149
-0.528943 0.0206322 0.0220088 76 148 152
-0.528948 0.0228353 0.0220141 81 141 151
-0.528952 0.0250392 0.0220193 93 109 124
-0.528957 0.027244 0.0220246 93 78 71
-0.529827 0.0295781 0.0214696 83 80 63
-0.5307 0.0319226 0.0209124 72 98 89
-0.530705 0.0341388 0.0209176 67 109 112
-0.533337 0.036787 0.0192217 67 115 121
-0.536895 0.0396198 0.0169262 71 120 129
-0.537797 0.042027 0.0163505 100 136 129
-0.540516 0.0447706 0.0145981 123 159 114
-0.54235 0.0473794 0.0134196 111 118 85
-0.543275 0.0498354 0.0128293 98 89 74
-0.541852 -0.00931698 0.0108326 63 67 87
-0.541857 -0.00705239 0.0108376 63 67 98
-0.540944 -0.0048481 0.0114424 62 71 103
-0.539126 -0.00271741 0.0126396 77 64 96
-0.538225 -0.000534015 0.013237 147 67 73
-0.536429 0.00156748 0.0144194 220 99 64
-0.535538 0.00373032 0.0150095 255 103 47
-0.533764 0.00580318 0.0161774 255 95 48
-0.532005 0.00786 0.0173357 245 97 51
-0.53026 0.00990093 0.0184847 213 97 65
-0.529395 0.0120196 0.0190582 142 111 91
-0.529399 0.0142284 0.0190631 90 116 109
-0.528538 0.0163358 0.0196343 73 117 116
-0.527679 0.0184354 0.0202031 69 125 127
-0.527684 0.0206379 0.020208 67 128 135
-0.528551 0.0229563 0.019649 71 130 144
-0.528555 0.0251649 0.0196539 89 124 123
-0.52856 0.0273743 0.0196588 97 117 116
-0.528564 0.0295845 0.0196637 88 96 94
-0.529434 0.0319292 0.0191025 71 102 98
-0.529439 0.0341456 0.0191074 73 119 119
-0.532063 0.036794 0.0174001 84 143 133
-0.536505 0.039779 0.0145045 102 152 135
-0.539216 0.042508 0.0127403 104 152 132
-0.540131 0.0449421 0.0121507 103 152 115
-0.541966 0.0475573 0.0109591 108 123 81
-0.542892 0.050019 0.0103622 95 88 74
-0.540554 -0.00931386 0.00897635 135 113 75
-0.540559 -0.00704907 0.00898103 93 75 90
-0.539649 -0.00484458 0.00958938 79 69 102
-0.538742 -0.00264838 0.0101952 101 74 76
-0.53784 -0.000460407 0.0107986 212 99 46
-0.535145 0.00157152 0.0125844 255 112 51
-0.53515 0.00381262 0.012589 255 117 46
-0.534262 0.00597187 0.0131824 255 107 48
-0.532493 0.00803661 0.0143575 255 100 50
-0.530738 0.0100853 0.0155229 246 93 49
-0.529869 0.0122125 0.0161044 213 95 39
-0.529002 0.0143318 0.0166835 171 90 70
-0.528139 0.0164434 0.0172603 127 90 90
-0.528144 0.018654 0.0172649 102 90 96
-0.527284 0.0207543 0.0178393 77 112 124
-0.527288 0.0229622 0.0178439 70 152 155
-0.527293 0.0251709 0.0178485 87 171 167
-0.527297 0.0273805 0.017853 108 181 165
-0.528165 0.02972 0.0172878 114 165 155
-0.528169 0.0319358 0.0172924 111 161 145
-0.52904 0.034291 0.0167248 101 175 157
-0.531667 0.0369459 0.0149991 84 163 143
-0.536114 0.0399388 0.0120724 88 156 137
-0.537921 0.0425154 0.0108875 100 164 122
-0.540658 0.0452796 0.00908933 106 168 102
-0.542503 0.0479074 0.0078796 101 125 78
-0.543433 0.0503803 0.00727331 95 95 67
-0.540168 -0.0115276 0.00650539 202 170 97
-0.539256 -0.00931071 0.00711981 227 187 91
-0.53926 -0.00704572 0.00712415 204 157 86
-0.539264 -0.0047799 0.00712848 189 127 68
-0.537449 -0.00264467 0.00834535 190 107 72
-0.537453 -0.000386534 0.00834969 236 102 54
-0.534755 0.00164936 0.010154 255 112 46
-0.533866 0.00381685 0.0107533 255 127 51
-0.53387 0.00605896 0.0107576 255 122 56
-0.532985 0.00821466 0.0113545 255 113 56
-0.531221 0.0102713 0.0125366 255 103 59
-0.530346 0.0124069 0.0131262 245 98 41
-0.528604 0.0144355 0.014294 229 89 46
-0.528607 0.0166545 0.0142982 194 83 58
-0.527744 0.0187667 0.0148807 132 94 73
-0.527747 0.0209829 0.0148849 108 140 136
-0.526887 0.0230837 0.015465 101 172 175
-0.526891 0.0252971 0.0154692 89 174 175
-0.526895 0.0275114 0.0154734 95 188 182
-0.527763 0.0298561 0.0149019 90 168 167
-0.527767 0.0320765 0.0149061 89 150 140
-0.528639 0.034437 0.0143322 99 164 126
-0.53039 0.0369529 0.0131732 109 167 103
-0.53572 0.0400993 0.00962989 106 170 96
-0.538437 0.042842 0.00782725 111 184 95
-0.541189 0.04562 0.00600202 110 166 83
-0.543044 0.0482604 0.00477388 103 124 80
-0.544914 0.0509239 0.00353541 96 88 69
-0.549161 -0.0133131 -0.00228585 176 146 99
-0.540704 -0.0114295 0.00340936 234 176 70
-0.538871 -0.00925559 0.00464901 252 192 81
-0.538874 -0.00698567 0.004653 255 180 61
-0.537965 -0.00477635 0.00527093 240 168 61
-0.537969 -0.00250947 0.00527492 228 136 68
-0.536159 -0.000382636 0.00649913 249 99 47
-0.535261 0.00180187 0.00710941 255 103 40
-0.533473 0.00389948 0.00831846 255 109 43
-0.533476 0.00614641 0.00832241 255 115 52
-0.53259 0.00830656 0.00892519 255 136 64
-0.531707 0.0104587 0.00952546 255 123 59
-0.530827 0.0126028 0.0101233 255 99 53
-0.529075 0.0146392 0.0113077 255 108 49
-0.528207 0.0167634 0.0118983 232 98 60
-0.52821 0.018988 0.0119022 150 96 80
-0.527345 0.0211008 0.0124903 97 139 148
-0.526484 0.0232058 0.0130761 86 155 160
-0.526487 0.0254239 0.01308 83 157 157
-0.526491 0.0276428 0.0130839 81 151 156
-0.52736 0.0299928 0.0125059 86 154 138
-0.527364 0.0322179 0.0125099 105 175 98
-0.529109 0.034724 0.011343 130 199 106
-0.531752 0.0373983 0.00957281 131 201 104
-0.536227 0.0404149 0.00657085 115 170 92
-0.538958 0.0431712 0.00474116 117 174 84
-0.541724 0.0459632 0.00288845 109 155 74
-0.54641 0.0491439 -0.000254575 101 118 72
-0.549271 0.0520236 -0.00217099 96 84 68
-0.549745 -0.0155513 -0.00549636 109 128 119
-0.54783 -0.0133102 -0.0041899 188 147 97
-0.543107 -0.0112339 -0.000977569 239 174 69
-0.539401 -0.00914779 0.00154454 255 185 71
-0.538487 -0.00692538 0.00217121 255 187 56
-0.537576 -0.00471137 0.00279526 253 183 72
-0.53667 -0.00250573 0.0034167 230 149 66
-0.536673 -0.00023781 0.00342034 246 99 32
-0.534868 0.00188065 0.0046519 255 105 45
-0.533973 0.00406153 0.00526564 255 100 49
-0.533976 0.00631797 0.00526926 255 98 43
-0.533084 0.00848686 0.00588047 255 129 58
-0.532197 0.0106477 0.00648917 255 140 79
-0.531312 0.0128005 0.00709536 255 111 64
-0.530432 0.0149452 0.00769904 255 128 73
-0.527804 0.0168728 0.00948824 240 107 85
-0.527808 0.0191021 0.00949181 186 81 71
-0.526941 0.0212191 0.0100857 99 100 106
-0.526078 0.0233284 0.0106772 73 122 115
-0.526082 0.0255511 0.0106808 75 131 117
-0.526952 0.027901 0.0100964 77 130 122
-0.526955 0.0301299 0.0101 89 147 112
-0.528702 0.032632 0.00892055 110 179 95
-0.530463 0.0351555 0.00773142 125 199 106
-0.534925 0.0381482 0.00471 122 200 106
-0.537648 0.0408897 0.0028683 115 169 84
-0.540405 0.0436665 0.00100344 108 167 77
-0.545076 0.0468221 -0.00215996 97 148 81
-0.549848 0.0500464 -0.00539127 93 108 83
-0.550817 0.0525883 -0.00604285 91 83 74
-0.548408 -0.0155487 -0.00740854 105 121 110
-0.547453 -0.0132626 -0.00674834 175 129 94
-0.545551 -0.011035 -0.00543964 232 173 73
-0.539013 -0.009092 -0.000954179 255 188 62
-0.538097 -0.00686484 -0.000321308 255 199 70
-0.537186 -0.00464612 0.000308909 255 189 70
-0.536278 -0.00243584 0.000936488 225 124 49
-0.535374 -0.000233874 0.00156146 228 110 29
-0.535377 0.0020351 0.00156474 250 84 24
-0.534476 0.00422493 0.00218711 252 96 40
-0.53448 0.00649092 0.00219037 255 103 37
-0.533583 0.00866864 0.0028102 255 93 43
-0.53269 0.0108382 0.00342741 255 90 55
-0.531801 0.0129997 0.00404208 255 109 48
-0.530915 0.0151531 0.0046542 255 90 60
-0.530033 0.0172985 0.00526384 248 104 65
-0.530037 0.0195464 0.00526709 200 86 64
-0.529158 0.02168 0.00587417 110 76 71
-0.529162 0.023925 0.00587742 67 97 90
-0.529165 0.0261707 0.00588067 76 94 86
-0.529168 0.0284174 0.00588392 100 125 72
-0.530938 0.0309323 0.00467703 106 151 77
-0.53183 0.0333292 0.00407148 110 167 81
-0.533623 0.0358819 0.00284956 111 179 86
-0.53543 0.0384568 0.00161742 117 168 68
-0.538167 0.0412119 -0.000251787 110 161 77
-0.543743 0.0445009 -0.00406496 106 153 76
-0.5485 0.0476995 -0.00731707 105 142 78
-0.549466 0.0502357 -0.00797317 100 100 71
-0.550437 0.0527838 -0.00863207 86 83 79
-0.547071 -0.015546 -0.00932104 94 107 114
-0.547074 -0.0132149 -0.00931804 138 120 76
-0.546121 -0.0109328 -0.00865411 212 172 63
-0.543281 -0.0087682 -0.00668513 246 177 54
-0.537706 -0.00680405 -0.00282461 254 187 66
-0.536793 -0.00458061 -0.00218819 199 173 71
-0.535884 -0.00236564 -0.00155441 181 114 41
-0.534978 -0.000159055 -0.000923294 218 134 44
-0.534077 0.0020392 -0.000294801 222 113 40
-0.53408 0.00430925 -0.000291873 230 83 36
-0.534083 0.00658019 -0.000288942 243 99 35
-0.533185 0.00876246 0.000336924 249 102 40
-0.53229 0.0109365 0.000960239 255 87 48
-0.5314 0.0131025 0.00158092 255 96 33
-0.531403 0.0153627 0.00158384 253 95 40
-0.530516 0.0175167 0.00220197 235 85 52
-0.529633 0.0196628 0.00281755 160 101 85
-0.529636 0.0219162 0.00282046 92 97 108
-0.529639 0.0241706 0.00282337 77 119 114
-0.529642 0.0264258 0.00282628 84 118 96
-0.530531 0.0288118 0.00221655 81 127 93
-0.531424 0.0312086 0.00160429 91 134 99
-0.532321 0.0336162 0.000989506 92 145 97
-0.534122 0.0361809 -0.000250748 122 126 81
-0.536851 0.038921 -0.00213205 139 128 65
-0.539615 0.0416967 -0.00403715 141 150 72
-0.545245 0.0450131 -0.00792369 137 145 62
-0.548116 0.0478836 -0.00990306 153 135 70
-0.549083 0.0504259 -0.0105665 119 95 68
-0.545733 -0.0155434 -0.0112339 100 101 109
-0.545736 -0.013212 -0.0112312 121 95 68
-0.544786 -0.0109297 -0.0105635 188 128 50
-0.542895 -0.00871074 -0.0092393 225 170 64
-0.54102 -0.00650977 -0.00792633 237 170 69
-0.536398 -0.00451483 -0.00469607 159 113 62
-0.535488 -0.00229515 -0.00405608 124 96 51
-0.534581 -8.3893e-05 -0.00341875 140 122 50
-0.533678 0.002119 -0.0027841 196 139 55
-0.532779 0.00431357 -0.00215209 228 132 59
-0.532782 0.00658465 -0.0021495 219 99 47
-0.532784 0.00885663 -0.00214692 218 84 40
-0.532787 0.0111295 -0.00214434 229 78 39
-0.531892 0.0133042 -0.00151497 227 80 41
-0.531 0.0154708 -0.000888176 218 83 50
-0.530112 0.0176292 -0.000264005 170 92 64
-0.530115 0.0198914 -0.000261445 105 98 93
-0.530118 0.0221544 -0.000258869 84 132 128
-0.53012 0.0244183 -0.000256305 77 149 144
-0.530123 0.0266831 -0.000253738 90 159 142
-0.531017 0.0290797 -0.000872738 80 151 145
-0.531914 0.0314872 -0.00149435 89 146 138
-0.532815 0.0339055 -0.00211851 81 156 148
-0.534626 0.0364824 -0.00337727 116 145 106
-0.538291 0.0393911 -0.00592927 159 136 52
-0.542958 0.0425134 -0.00918119 180 148 59
-0.544855 0.0451905 -0.0104999 184 157 66
-0.546769 0.0478916 -0.0118299 180 152 80
-0.547733 0.0504342 -0.0124978 127 103 69
-0.54535 -0.0155006 -0.013819 119 100 104
-0.545352 -0.013164 -0.0138168 138 76 36
-0.544401 -0.0108767 -0.0131424 139 88 50
-0.543453 -0.00859833 -0.012471 187 137 55
-0.541568 -0.00638824 -0.011139 218 167 67
-0.539698 -0.00419608 -0.00981834 150 120 73
-0.53509 -0.00222437 -0.00656857 113 91 58
-0.534182 -8.42244e-06 -0.005925 104 100 62
-0.533278 0.00219908 -0.00528412 137 110 58
-0.532377 0.00439828 -0.00464592 164 147 69
-0.53238 0.0066743 -0.0046437 213 162 79
-0.531483 0.00886131 -0.00400814 231 140 67
-0.531485 0.0111344 -0.00400592 181 114 62
-0.531488 0.0134082 -0.0040037 133 71 57
-0.530595 0.0155793 -0.00337081 125 73 65
-0.529706 0.0177422 -0.00274052 100 102 90
-0.529708 0.0200092 -0.0027383 97 134 115
-0.529711 0.0222771 -0.00273607 105 171 147
-0.529713 0.0245459 -0.00273386 98 162 167
-0.530608 0.0269424 -0.0033597 128 209 175
-0.53061 0.0292177 -0.00335746 104 183 160
-0.531509 0.0316306 -0.00398586 88 166 155
-0.533314 0.0341973 -0.0052528 80 156 152
-0.536048 0.0369359 -0.00717436 106 141 125
-0.54162 0.040183 -0.0110934 160 139 64
-0.543511 0.0428495 -0.0124207 193 157 61
-0.543514 0.0451983 -0.0124184 199 160 71
-0.545421 0.0478996 -0.013757 181 151 75
-0.546382 0.0504424 -0.0144295 123 97 71
-0.544964 -0.0154575 -0.0164157 109 96 99
-0.544966 -0.0131158 -0.0164138 99 77 71
-0.544013 -0.0108235 -0.0157328 86 64 82
-0.543064 -0.00854015 -0.0150547 113 115 62
-0.54212 -0.00626572 -0.0143796 177 127 59
-0.541179 -0.0040001 -0.0137073 160 134 72
-0.538376 -0.00188111 -0.0117114 142 93 44
-0.534693 0.000139505 -0.00909007 118 110 76
-0.533783 0.00235618 -0.00844019 111 138 112
-0.531973 0.00448333 -0.00715051 118 147 107
-0.531976 0.00676434 -0.00714862 140 143 83
-0.531078 0.00895591 -0.00650689 203 155 78
-0.530183 0.0111392 -0.00586781 242 182 79
-0.530186 0.0134133 -0.00586595 208 139 75
-0.530188 0.0156882 -0.00586408 123 114 76
-0.529298 0.0178556 -0.00522768 86 140 104
-0.5293 0.0201276 -0.00522581 85 148 120
-0.529302 0.0224004 -0.00522395 100 165 150
-0.530197 0.0247967 -0.00585658 92 162 164
-0.5302 0.027076 -0.00585471 101 169 171
-0.530202 0.0293562 -0.00585283 97 158 154
-0.532001 0.0319127 -0.00712793 85 159 151
-0.533816 0.0344916 -0.00841376 81 153 153
-0.539347 0.0376998 -0.0123407 113 137 123
-0.541224 0.0403493 -0.0136708 169 134 72
-0.54217 0.0428571 -0.0143392 193 150 71
-0.543119 0.0453765 -0.0150103 197 153 63
-0.544073 0.0479076 -0.0156845 176 142 68
-0.545031 0.0504506 -0.0163615 119 93 67
-0.543622 -0.0131129 -0.0183362 77 78 94
-0.543624 -0.01077 -0.0183346 76 73 83
-0.542674 -0.00848172 -0.0176498 81 69 62
-0.541728 -0.0062023 -0.016968 99 86 68
-0.540785 -0.00393179 -0.0162892 130 112 54
-0.539847 -0.00167009 -0.0156132 150 114 39
-0.537052 0.000435142 -0.0136055 113 115 82
-0.53338 0.0024373 -0.0109686 100 147 125
-0.532473 0.00465022 -0.0103151 132 160 126
-0.530669 0.00676884 -0.00901792 113 142 127
-0.530671 0.00905089 -0.00901639 122 114 99
-0.529775 0.0112387 -0.0083711 174 151 69
-0.529777 0.0135178 -0.00836959 211 183 89
-0.528885 0.0156935 -0.00772699 121 114 79
-0.528888 0.0179695 -0.00772548 78 137 107
-0.52889 0.0202464 -0.00772396 80 141 117
-0.528892 0.0225241 -0.00772244 87 151 133
-0.528894 0.0248028 -0.00772091 85 152 148
-0.52979 0.0272102 -0.00836046 85 155 157
-0.530689 0.0296285 -0.00900267 85 147 146
-0.532498 0.0321971 -0.0102967 82 148 147
-0.536159 0.0350806 -0.0129193 81 137 149
-0.539883 0.0380143 -0.0155867 122 123 118
-0.540826 0.0405164 -0.0162595 172 132 56
-0.541772 0.04303 -0.0169352 185 141 50
-0.541775 0.0453843 -0.0169336 181 154 68
-0.542725 0.0479156 -0.0176122 132 111 80
-0.54368 0.0504588 -0.0182938 98 83 78
-0.544189 -0.0130187 -0.0216424 73 69 90
-0.543233 -0.0107164 -0.020948 89 69 85
-0.542281 -0.00842301 -0.0202565 90 78 73
-0.541334 -0.00613864 -0.019568 76 73 81
-0.54039 -0.00386319 -0.0188824 80 64 78
-0.538513 -0.00166626 -0.0175212 86 60 71
-0.536652 0.000512819 -0.0161717 76 89 66
-0.534806 0.00267435 -0.0148335 94 134 95
-0.531161 0.00465455 -0.0121922 102 138 120
-0.531162 0.00694552 -0.012191 95 143 130
-0.530262 0.0091463 -0.0115367 86 126 117
-0.529365 0.0113387 -0.0108852 83 87 97
-0.529367 0.0136227 -0.010884 109 66 45
-0.528474 0.0158029 -0.0102352 78 70 57
-0.527584 0.017975 -0.00958905 68 109 103
-0.527586 0.020252 -0.00958789 76 124 114
-0.528479 0.0226484 -0.0102317 80 137 120
-0.529376 0.0250557 -0.0108782 76 139 138
-0.530276 0.0274739 -0.0115274 78 136 147
-0.531181 0.0299032 -0.0121793 85 137 139
-0.534831 0.0327666 -0.0148182 82 125 131
-0.53668 0.0353824 -0.0161539 78 117 119
-0.539482 0.0381761 -0.0181795 99 107 82
-0.540426 0.0406841 -0.0188596 137 114 51
-0.540428 0.0430376 -0.0188584 147 123 65
-0.540429 0.0453921 -0.0188572 117 114 70
-0.541377 0.0479237 -0.0195403 83 81 82
-0.545728 -0.0128774 -0.0256844 66 72 83
-0.54284 -0.0106624 -0.023573 66 75 99
-0.542842 -0.00830813 -0.0235721 87 92 93
-0.541889 -0.00601397 -0.0228738 82 87 99
-0.539993 -0.0037943 -0.0214871 69 65 89
-0.537178 -0.00166243 -0.0194297 63 64 73
-0.536249 0.000590862 -0.0187491 71 63 38
-0.534402 0.00275685 -0.0173976 80 97 76
-0.531658 0.00482286 -0.015392 85 116 106
-0.529849 0.00695006 -0.0140688 77 131 117
-0.529851 0.00924207 -0.014068 69 114 105
-0.528953 0.0114391 -0.0134101 59 68 75
-0.528954 0.013728 -0.0134093 59 54 55
-0.528956 0.0160179 -0.0134085 67 52 37
-0.528062 0.0181988 -0.0127534 63 72 78
-0.528063 0.0204855 -0.0127526 73 96 101
-0.528961 0.0228926 -0.0134061 82 94 96
-0.529862 0.0253107 -0.0140623 86 109 100
-0.530767 0.0277399 -0.0147213 95 111 108
-0.533502 0.030453 -0.0167167 108 116 102
-0.534422 0.0329155 -0.0173869 97 117 109
-0.536274 0.0355377 -0.0187367 84 109 110
-0.538141 0.0381833 -0.0200982 70 82 92
-0.539081 0.0406915 -0.0207828 97 108 89
-0.539082 0.0430452 -0.020782 100 117 107
-0.540027 0.045571 -0.0214696 69 76 92
-0.550245 -0.012592 -0.0319596 93 85 83
-0.547289 -0.0103496 -0.0297794 67 56 85
-0.543407 -0.00819225 -0.026917 61 62 82
-0.542448 -0.00588818 -0.0262088 63 63 83
-0.540541 -0.0036593 -0.024802 67 62 73
-0.538651 -0.00144865 -0.0234073 68 63 72
-0.535845 0.000669227 -0.0213379 67 60 59
-0.534919 0.00291865 -0.0206537 85 60 15
-0.533076 0.0050758 -0.0192944 82 73 57
-0.530341 0.00712824 -0.0172772 70 77 81
-0.528537 0.0092468 -0.0159464 93 84 88
-0.528539 0.0115399 -0.015946 103 97 85
-0.52854 0.0138338 -0.0159455 73 63 80
-0.528541 0.0161287 -0.0159451 75 80 83
-0.528543 0.0184244 -0.0159446 62 48 72
-0.528544 0.020721 -0.0159441 63 57 72
-0.528545 0.0230185 -0.0159437 105 73 68
-0.529447 0.0254421 -0.016607 144 80 60
-0.53309 0.0282723 -0.0192898 177 89 66
-0.534011 0.0307347 -0.0199673 202 96 65
-0.534936 0.0332084 -0.0206477 197 108 81
-0.535865 0.0356937 -0.021331 129 139 130
-0.537734 0.0383458 -0.0227068 90 121 119
-0.538676 0.04086 -0.0233989 104 127 115
-0.538677 0.043219 -0.0233985 114 159 153
-0.538678 0.0455789 -0.023398 83 117 122
-0.539624 0.0481167 -0.0240931 88 87 79
-0.550854 -0.0124932 -0.0354079 96 99 90
-0.54986 -0.0101353 -0.0346672 73 71 85
-0.547882 -0.00784517 -0.0331956 63 51 82
-0.542051 -0.00582313 -0.028858 58 63 74
-0.541095 -0.00352309 -0.028146 65 61 67
-0.539193 -0.00130332 -0.0267312 71 64 61
-0.537309 0.000898251 -0.0253286 65 69 71
-0.534511 0.00300218 -0.0232472 77 66 36
-0.533587 0.00524772 -0.0225593 79 73 42
-0.53175 0.00739607 -0.0211923 59 74 82
-0.531751 0.00971282 -0.0211922 72 79 107
-0.531752 0.0120305 -0.0211921 84 98 113
-0.53084 0.0142461 -0.0205129 61 66 100
-0.530841 0.0165606 -0.0205128 63 76 111
-0.529933 0.0187637 -0.0198364 65 49 92
-0.529934 0.0210751 -0.0198363 113 46 63
-0.529935 0.0233873 -0.0198362 190 71 11
-0.531759 0.0259548 -0.0211915 220 87 40
-0.533598 0.0285451 -0.0225583 244 93 32
-0.533599 0.0308797 -0.0225582 255 96 40
-0.534525 0.0333593 -0.023246 255 114 61
-0.535455 0.0358503 -0.0239367 236 116 71
-0.537326 0.038509 -0.025327 128 94 97
-0.537327 0.0408674 -0.0253269 97 132 114
-0.53827 0.0433935 -0.0260265 85 144 149
-0.538271 0.0457586 -0.0260264 76 131 121
-0.538272 0.0481247 -0.0260263 82 96 79
-0.538273 0.0504917 -0.0260262 84 85 66
-0.550468 -0.0100252 -0.0381359 98 98 85
-0.548479 -0.00772521 -0.0366429 124 112 66
-0.546508 -0.00544454 -0.035163 109 113 78
-0.540694 -0.0034527 -0.0308001 93 111 69
-0.53879 -0.00122822 -0.0293712 91 116 60
-0.536903 0.000977945 -0.0279546 92 114 62
-0.535965 0.00324646 -0.0272509 91 109 59
-0.533176 0.00533643 -0.0251576 123 110 57
-0.532255 0.00757805 -0.0244659 79 66 72
-0.532256 0.00990488 -0.0244662 65 76 93
-0.532257 0.0122326 -0.0244665 63 69 104
-0.532257 0.0145612 -0.0244667 50 61 105
-0.53134 0.016782 -0.023778 67 66 104
-0.531341 0.0191074 -0.0237783 71 63 87
-0.531342 0.0214337 -0.0237786 110 65 71
-0.532261 0.0238845 -0.0244678 218 93 28
-0.532262 0.0262175 -0.0244681 254 105 36
-0.533185 0.0286855 -0.0251603 255 107 35
-0.533185 0.0310253 -0.0251605 255 117 47
-0.534112 0.0335107 -0.0258557 255 161 78
-0.535043 0.0360077 -0.0265538 255 121 71
-0.535978 0.0385163 -0.0272549 158 105 84
-0.536917 0.0410366 -0.0279591 85 116 109
-0.536918 0.0434011 -0.0279594 71 129 121
-0.536919 0.0457665 -0.0279596 74 128 106
-0.53692 0.0481328 -0.0279599 88 114 84
-0.536921 0.0505 -0.0279602 83 83 76
-0.550079 -0.0123905 -0.0408759 101 128 95
-0.550079 -0.00996821 -0.0408766 119 160 94
-0.549081 -0.00760415 -0.0401211 156 191 88
-0.546113 -0.00537752 -0.0378736 149 186 94
-0.541251 -0.00331471 -0.0341928 127 178 85
-0.538385 -0.00115283 -0.0320229 110 147 51
-0.536495 0.00105801 -0.0305921 102 139 63
-0.534621 0.0032507 -0.0291737 98 134 62
-0.53184 0.00534081 -0.0270684 121 142 62
-0.530921 0.00758266 -0.026373 83 68 72
-0.530922 0.00990966 -0.0263736 62 70 88
-0.530923 0.0122376 -0.0263743 53 59 101
-0.530923 0.0145664 -0.0263749 41 60 107
-0.530924 0.0168961 -0.0263755 60 48 86
-0.530924 0.0192266 -0.0263762 73 58 65
-0.531844 0.0216772 -0.0270728 102 49 51
-0.531845 0.0240145 -0.0270734 228 92 15
-0.532769 0.0264824 -0.027773 254 117 52
-0.532769 0.0288266 -0.0277737 255 106 38
-0.53277 0.0311716 -0.0277743 255 128 47
-0.533697 0.0336629 -0.0284769 255 114 63
-0.533698 0.0360147 -0.0284775 255 108 57
-0.53463 0.0385235 -0.0291832 153 101 76
-0.535566 0.041044 -0.0298919 80 93 85
-0.535566 0.0434087 -0.0298925 86 113 94
-0.535567 0.0457743 -0.0298931 101 149 96
-0.535567 0.0481408 -0.0298938 101 119 71
-0.535568 0.0505082 -0.0298944 91 80 67
-0.549688 -0.0123389 -0.0436287 107 136 78
-0.549688 -0.00991094 -0.0436298 111 168 92
-0.548689 -0.00754153 -0.0428669 125 175 81
-0.545716 -0.00531017 -0.0405966 139 196 96
-0.542782 -0.00310733 -0.0383562 128 188 91
-0.53893 -0.00100492 -0.0354143 115 169 67
-0.536085 0.00113838 -0.0332415 123 166 73
-0.534208 0.00333565 -0.0318089 128 167 79
-0.530504 0.00534526 -0.0289795 123 156 81
-0.530504 0.00767655 -0.0289805 90 89 76
-0.529588 0.00991447 -0.0282814 66 68 85
-0.529588 0.0122426 -0.0282824 53 60 100
-0.530505 0.0146758 -0.0289835 40 55 97
-0.530505 0.0170106 -0.0289845 60 52 85
-0.530506 0.0193464 -0.0289855 92 47 61
-0.531426 0.0218027 -0.0296895 140 52 43
-0.531427 0.0241452 -0.0296905 206 90 48
-0.531427 0.0264886 -0.0296915 251 113 39
-0.531427 0.028833 -0.0296925 255 105 44
-0.532352 0.0313185 -0.0303996 255 101 45
-0.532352 0.0336697 -0.0304006 255 96 41
-0.533281 0.0361727 -0.0311108 223 97 63
-0.533281 0.0385307 -0.0311118 114 79 92
-0.534214 0.0410515 -0.031825 68 81 75
-0.534214 0.0434163 -0.031826 93 124 63
-0.534215 0.0457822 -0.031827 111 136 72
-0.534215 0.0481488 -0.031828 104 99 46
-0.534215 0.0505164 -0.031829 92 77 61
-0.549295 -0.012287 -0.0463942 99 120 75
-0.548294 -0.00990773 -0.0456239 111 167 74
-0.548294 -0.00747863 -0.0456253 115 168 71
-0.546305 -0.00517818 -0.0440934 116 177 82
-0.543354 -0.00296627 -0.0418204 122 170 85
-0.538522 -0.000928536 -0.0380972 145 187 82
-0.536618 0.00129614 -0.0366315 148 200 98
-0.533794 0.00342101 -0.0344558 163 195 94
-0.531006 0.00551941 -0.0323082 141 169 82
-0.529167 0.00768116 -0.0308923 105 121 82
-0.529167 0.0100136 -0.0308936 85 84 79
-0.529167 0.0123468 -0.030895 58 64 97
-0.529167 0.014681 -0.0308964 46 49 74
-0.530085 0.0171257 -0.0316049 80 56 69
-0.530085 0.0194667 -0.0316062 144 62 47
-0.530085 0.0218085 -0.0316076 167 75 19
-0.531007 0.0242765 -0.0323192 145 74 36
-0.531007 0.0266251 -0.0323205 212 77 30
-0.531007 0.0289747 -0.0323219 243 105 36
-0.531932 0.031466 -0.0330366 245 91 38
-0.531932 0.0338224 -0.0330379 222 91 63
-0.531932 0.0361797 -0.0330393 173 123 102
-0.532862 0.0386947 -0.033757 105 125 129
-0.532862 0.0410589 -0.0337584 65 68 98
-0.532862 0.043424 -0.0337598 120 83 72
-0.532862 0.04579 -0.0337612 158 90 56
-0.5489 -0.0122349 -0.0491723 79 101 86
-0.547897 -0.00985021 -0.0483945 104 157 77
-0.546899 -0.00747525 -0.0476201 112 167 72
-0.546899 -0.00504501 -0.0476219 114 172 81
-0.54295 -0.00289343 -0.0445531 119 170 82
-0.541002 -0.000631402 -0.0430399 133 193 93
-0.537156 0.00145526 -0.0400514 128 187 105
-0.534316 0.00358853 -0.0378444 143 191 98
-0.531512 0.00569506 -0.0356661 138 170 74
-0.529663 0.00786554 -0.0342299 108 136 87
-0.528745 0.0101131 -0.0335174 97 60 67
-0.528744 0.0124515 -0.0335191 148 59 64
-0.528744 0.0147909 -0.0335208 168 80 50
-0.528744 0.0171311 -0.0335226 160 89 56
-0.529662 0.0195874 -0.0342386 121 70 52
-0.529662 0.0219345 -0.0342403 106 40 38
-0.530584 0.0244082 -0.0349595 89 56 43
-0.530584 0.0267622 -0.0349612 140 65 39
-0.530584 0.0291169 -0.0349629 196 94 44
-0.530584 0.0314727 -0.0349647 177 93 54
-0.53151 0.0339759 -0.0356869 132 112 102
-0.53151 0.0363385 -0.0356887 123 159 149
-0.53151 0.0387019 -0.0356904 104 149 145
-0.53244 0.0412289 -0.0364158 135 92 102
-0.53244 0.0435993 -0.0364175 178 74 81
-0.533374 0.0461442 -0.037146 174 73 53
-0.548503 -0.0121825 -0.0519634 88 126 115
-0.547499 -0.0097924 -0.0511779 96 149 91
-0.546499 -0.00741208 -0.0503959 107 164 74
-0.545503 -0.00504143 -0.0496174 107 165 74
-0.543526 -0.00275049 -0.0480686 108 161 86
-0.539624 -0.000627476 -0.0450098 109 162 81
-0.535791 0.00145936 -0.0420044 121 161 82
-0.533898 0.00367497 -0.0405224 124 167 81
-0.530164 0.00569953 -0.0375946 127 148 71
-0.52924 0.00796064 -0.0368721 132 121 51
-0.52832 0.010213 -0.0361526 193 104 51
-0.528319 0.0125566 -0.0361548 197 102 69
-0.528319 0.0149012 -0.0361568 142 82 59
-0.528318 0.0172467 -0.0361589 109 59 59
-0.529238 0.0197088 -0.0368826 71 48 79
-0.529237 0.0220611 -0.0368847 68 60 77
-0.53016 0.0245406 -0.0376114 80 61 75
-0.53016 0.0268998 -0.0376135 83 62 82
-0.530159 0.0292598 -0.0376157 99 66 87
-0.530159 0.0316208 -0.0376178 98 97 88
-0.530159 0.0339827 -0.0376199 85 127 116
-0.531086 0.0364979 -0.0383498 86 143 149
-0.531085 0.0388667 -0.0383519 91 147 150
-0.531085 0.0412364 -0.038354 142 97 97
-0.532016 0.0437754 -0.0390871 174 68 69
-0.547099 -0.0121795 -0.0539716 94 133 129
-0.547098 -0.00973434 -0.0539741 83 136 113
-0.546097 -0.0073486 -0.0531845 102 149 62
-0.544108 -0.00503785 -0.0516133 107 160 70
-0.542136 -0.00274672 -0.0500559 108 160 74
-0.539212 -0.000549395 -0.0477446 111 157 69
-0.534425 0.00146349 -0.0439578 104 136 68
-0.532538 0.00367926 -0.0424677 107 116 54
-0.52974 0.00579018 -0.0402554 96 88 55
-0.528814 0.00805617 -0.0395259 96 80 62
-0.527893 0.0103133 -0.0387996 145 84 66
-0.527892 0.0126622 -0.0388021 126 59 61
-0.527892 0.0150121 -0.0388046 86 63 73
-0.527891 0.0173628 -0.0388071 120 92 69
-0.528811 0.0198306 -0.0395383 116 103 84
-0.52881 0.0221882 -0.0395408 81 82 87
-0.528809 0.0245466 -0.0395432 93 107 108
-0.528809 0.026906 -0.0395457 73 75 100
-0.528808 0.0292663 -0.0395482 56 73 95
-0.528807 0.0316275 -0.0395507 62 93 74
-0.529731 0.0341369 -0.0402851 65 117 105
-0.530659 0.036658 -0.0410228 69 128 124
-0.530658 0.0390321 -0.0410253 91 132 118
-0.53159 0.0415711 -0.0417661 135 76 71
-0.540169 0.0455084 -0.0485607 150 53 47
-0.546697 -0.0121269 -0.0567803 83 126 110
-0.545694 -0.00973114 -0.055983 85 134 118
-0.544695 -0.00734519 -0.0551893 90 132 88
-0.542712 -0.00503428 -0.0536094 109 157 74
-0.541726 -0.00267288 -0.0528263 110 153 62
-0.538798 -0.000470973 -0.0504917 115 147 68
-0.534955 0.00162403 -0.0474258 105 134 68
-0.532116 0.00376608 -0.0451622 104 110 60
-0.530243 0.00596816 -0.0436705 87 71 66
-0.528387 0.00815212 -0.0421916 73 68 70
-0.527464 0.0104141 -0.0414583 87 63 60
-0.527463 0.0127683 -0.0414612 60 59 75
-0.527462 0.0151234 -0.041464 54 59 80
-0.527461 0.0174794 -0.0414669 76 63 86
-0.52746 0.0198362 -0.0414697 68 72 96
-0.528381 0.0223158 -0.0422087 64 68 84
-0.52838 0.0246796 -0.0422115 69 68 88
-0.528379 0.0270443 -0.0422144 65 67 86
-0.528378 0.0294098 -0.0422172 57 77 84
-0.529303 0.0319191 -0.0429594 57 94 93
-0.529302 0.0342916 -0.0429622 72 114 103
-0.530231 0.0368188 -0.0437077 85 127 109
-0.531163 0.0393578 -0.0444563 114 124 100
-0.537814 0.0429169 -0.0497719 159 62 52
-0.541707 0.0460489 -0.0528851 126 81 72
-0.54269 0.0486794 -0.0536743 100 83 72
-0.545288 -0.00967282 -0.0587971 75 107 91
-0.543293 -0.00734182 -0.0571943 83 96 90
-0.541316 -0.00503067 -0.055606 107 100 58
-0.541314 -0.00259872 -0.0556093 122 111 54
-0.538382 -0.000392208 -0.0532514 123 114 53
-0.535489 0.00178601 -0.0509247 114 94 49
-0.532634 0.00393659 -0.0486286 113 73 46
-0.529816 0.00605997 -0.0463624 102 69 57
-0.528884 0.00834055 -0.0456158 79 68 66
-0.527033 0.0105153 -0.0441288 77 64 49
-0.527032 0.0128748 -0.0441321 58 59 75
-0.527953 0.0153422 -0.0448787 52 40 70
-0.527952 0.0177086 -0.044882 55 59 81
-0.527951 0.0200758 -0.0448852 39 44 81
-0.52795 0.022444 -0.0448884 51 56 85
-0.527949 0.0248131 -0.0448917 65 55 92
-0.527947 0.0271831 -0.0448949 57 66 81
-0.529804 0.0298312 -0.0463949 66 94 86
-0.529802 0.0322133 -0.0463981 80 114 114
-0.530736 0.0347462 -0.0471546 94 147 132
-0.530735 0.0371353 -0.0471579 91 159 144
-0.535469 0.0403374 -0.0509773 98 149 135
-0.54031 0.0436117 -0.0548818 162 62 61
-0.54129 0.0462359 -0.0556758 126 89 77
-0.541288 0.0486875 -0.0556792 95 86 79
-0.543879 -0.00966963 -0.0608112 93 110 81
-0.542882 -0.00727802 -0.0600055 155 83 55
-0.540902 -0.00496181 -0.0584014 184 73 32
-0.539918 -0.00259491 -0.0576065 169 89 53
-0.535069 -0.00053754 -0.0536703 178 64 46
-0.533158 0.00171106 -0.0521222 188 66 40
-0.530324 0.0038576 -0.0498236 145 63 40
-0.528455 0.00606448 -0.0483091 139 69 46
-0.527525 0.00834522 -0.0475585 106 64 63
-0.528452 0.0108119 -0.0483163 87 49 29
-0.52845 0.0131869 -0.0483199 60 60 70
-0.529381 0.0156713 -0.0490809 54 64 74
-0.529379 0.0180533 -0.0490846 54 64 72
-0.529378 0.0204363 -0.0490882 42 45 72
-0.529376 0.0228202 -0.0490918 50 51 78
-0.529375 0.0252049 -0.0490954 62 64 77
-0.529373 0.0275906 -0.0490991 52 84 79
-0.531248 0.0302581 -0.0506276 67 103 80
-0.53219 0.0328027 -0.0513988 76 124 101
-0.533137 0.0353594 -0.0521733 75 143 119
-0.534088 0.0379282 -0.0529513 74 140 129
-0.537939 0.0410074 -0.0560865 123 113 108
-0.539889 0.0437931 -0.057677 148 80 69
-0.539888 0.0462438 -0.0576807 124 118 83
-0.539886 0.0486956 -0.0576845 92 93 81
-0.54347 -0.012068 -0.063639 88 95 106
-0.542471 -0.0096664 -0.0628256 129 100 73
-0.541476 -0.00727462 -0.0620158 211 90 39
-0.539502 -0.00495821 -0.060403 219 94 57
-0.537546 -0.00266151 -0.0588047 203 77 46
-0.534645 -0.000459078 -0.0564315 218 83 70
-0.533685 0.0018738 -0.0556502 233 84 62
-0.53178 0.00411289 -0.0540938 193 84 53
-0.530833 0.00642222 -0.0533227 183 66 34
-0.530832 0.00881648 -0.0533267 143 64 52
-0.531775 0.0113115 -0.0541059 125 62 50
-0.532723 0.0138184 -0.0548884 105 59 60
-0.532721 0.0162259 -0.0548925 80 58 71
-0.532719 0.0186344 -0.0548965 72 65 72
-0.532718 0.0210438 -0.0549005 62 68 65
-0.532716 0.0234542 -0.0549046 78 95 52
-0.531765 0.0257334 -0.05413 86 134 68
-0.531763 0.0281402 -0.0541341 86 135 76
-0.53271 0.0306906 -0.0549167 85 136 85
-0.533662 0.0332532 -0.0557028 87 115 87
-0.534618 0.0358281 -0.0564923 94 111 95
-0.535579 0.0384152 -0.0572855 139 97 86
-0.538489 0.0413507 -0.0596778 181 102 68
-0.538487 0.0438008 -0.0596818 128 112 90
-0.538485 0.0462518 -0.0596859 103 148 124
-0.547098 -0.0142967 -0.0698201 112 88 84
-0.546079 -0.0118633 -0.0689837 151 87 82
-0.543054 -0.00955214 -0.0664882 190 80 38
-0.54106 -0.00721058 -0.0648448 231 101 38
-0.539083 -0.00488904 -0.0632161 234 112 57
-0.537124 -0.00258731 -0.061602 223 77 8
-0.534219 -0.000380305 -0.0592054 217 69 42
-0.533258 0.00195777 -0.0584166 217 60 62
-0.532301 0.00428645 -0.0576313 209 57 30
-0.531348 0.00660574 -0.0568493 177 60 1
-0.532297 0.00910616 -0.0576401 187 55 10
-0.532295 0.0115174 -0.0576445 204 71 43
-0.533248 0.0140361 -0.0584387 197 74 43
-0.533246 0.0164545 -0.0584431 168 70 24
-0.533244 0.0188738 -0.0584476 100 67 55
-0.533242 0.0212941 -0.058452 88 113 57
-0.532285 0.0235874 -0.0576666 106 157 63
-0.532283 0.0260042 -0.057671 113 181 84
-0.532281 0.0284219 -0.0576755 128 190 89
-0.532279 0.0308405 -0.0576799 142 186 92
-0.534191 0.0335592 -0.0592676 129 129 67
-0.534189 0.0359904 -0.0592721 162 72 19
-0.536117 0.038746 -0.060874 176 89 57
-0.537087 0.0413582 -0.0616825 142 86 74
-0.537085 0.0438085 -0.061687 89 98 89
-0.538059 0.0464397 -0.0624992 80 114 109
-0.547711 -0.0142025 -0.0735648 129 87 79
-0.547709 -0.0117066 -0.0735698 185 85 60
-0.546684 -0.00926684 -0.0727214 211 88 48
-0.542636 -0.0070235 -0.0693515 231 87 40
-0.539648 -0.00475339 -0.0668652 231 109 44
-0.5367 -0.00251278 -0.0644122 210 90 49
-0.534756 -0.000225653 -0.0627967 195 54 39
-0.532828 0.00204215 -0.0611956 193 53 39
-0.53187 0.00437596 -0.0604027 191 56 46
-0.530916 0.00670039 -0.0596134 155 66 49
-0.531866 0.00920676 -0.0604123 210 75 39
-0.532819 0.0117251 -0.0612148 245 106 39
-0.532817 0.0141482 -0.0612196 251 95 44
-0.532815 0.0165722 -0.0612245 234 91 40
-0.532812 0.0189971 -0.0612293 148 103 55
-0.53281 0.0214229 -0.0612341 117 133 60
-0.531852 0.0237213 -0.0604412 128 184 91
-0.53185 0.0261436 -0.060446 146 206 96
-0.531847 0.0285668 -0.0604508 141 204 97
-0.532801 0.0311356 -0.0612534 132 203 110
-0.533759 0.0337166 -0.0620596 132 156 92
-0.534721 0.0363101 -0.0628694 167 79 59
-0.535687 0.0389161 -0.0636828 140 79 64
-0.535685 0.0413657 -0.0636877 85 73 86
-0.535683 0.0438162 -0.0636925 67 87 65
-0.538613 0.0468101 -0.0661449 68 98 89
-0.546277 -0.0141996 -0.0756165 123 81 94
-0.546274 -0.0117035 -0.0756218 195 86 66
-0.546271 -0.00920638 -0.0756272 215 86 41
-0.545249 -0.00677124 -0.0747745 225 78 39
-0.541214 -0.00454939 -0.0713864 223 96 54
-0.537252 -0.00236654 -0.0680592 216 90 46
-0.534327 -0.000145812 -0.0656041 201 77 43
-0.533358 0.00220776 -0.0647965 178 62 49
-0.531437 0.00446587 -0.0631868 159 56 33
-0.531435 0.00688639 -0.063192 129 52 42
-0.532389 0.00940449 -0.0640028 217 87 24
-0.532387 0.0118322 -0.064008 253 112 42
-0.532384 0.0142609 -0.0640132 255 108 42
-0.532381 0.0166904 -0.0640185 254 108 31
-0.531422 0.0190027 -0.063218 175 105 54
-0.531419 0.0214288 -0.0632232 117 132 68
-0.531417 0.0238557 -0.0632284 118 173 90
-0.531414 0.0262836 -0.0632336 124 179 82
-0.532369 0.0288522 -0.0640445 123 192 90
-0.532366 0.0312874 -0.0640498 119 186 93
-0.533325 0.0338748 -0.0648644 130 158 91
-0.534288 0.0364746 -0.0656826 154 84 57
-0.534285 0.0389234 -0.0656879 151 77 56
-0.534283 0.0413732 -0.0656931 95 67 67
-0.53428 0.0438239 -0.0656984 69 69 69
-0.5372 0.0468181 -0.0681647 65 76 80
-0.545863 -0.0141508 -0.0785352 116 98 87
-0.54586 -0.0116487 -0.0785409 182 86 53
-0.545857 -0.00914565 -0.0785467 201 81 39
-0.544833 -0.00670485 -0.0776857 209 79 24
-0.543814 -0.00427427 -0.0768286 213 93 53
-0.538798 -0.00214659 -0.0725789 201 88 55
-0.533895 -6.56182e-05 -0.0684243 160 85 54
-0.532926 0.00229324 -0.067609 123 61 57
-0.53196 0.00464252 -0.0667973 96 57 57
-0.530999 0.00698228 -0.0659892 89 58 54
-0.531955 0.00950642 -0.0668085 172 71 29
-0.531952 0.0119398 -0.0668141 224 84 41
-0.531949 0.014374 -0.0668197 246 94 34
-0.531946 0.0168092 -0.0668253 244 97 30
-0.531943 0.0192453 -0.0668309 143 99 48
-0.53194 0.0216824 -0.0668365 105 136 66
-0.531938 0.0241204 -0.0668421 108 168 84
-0.530976 0.0264243 -0.0660339 113 170 75
-0.531932 0.0289992 -0.0668534 108 179 80
-0.531929 0.0314399 -0.066859 114 178 86
-0.532889 0.0340336 -0.067682 128 148 79
-0.532886 0.0364817 -0.0676877 150 71 51
-0.532883 0.0389307 -0.0676933 171 79 34
-0.533847 0.0415498 -0.0685201 114 88 71
-0.533844 0.0440062 -0.0685257 101 104 85
-0.535788 0.0468261 -0.0701848 76 76 83
-0.545447 -0.0141017 -0.0814676 99 106 92
-0.545443 -0.0115937 -0.0814738 129 89 72
-0.54544 -0.00908461 -0.0814799 184 79 51
-0.544415 -0.00663815 -0.0806107 189 74 43
-0.544411 -0.00413297 -0.0806168 147 68 51
